989.562073 13.416059 548.884949
614.796509 145.363632 341.898071
1014.599976 733.799988 317.724823
906.500000 965.000000 625.360596
605.511780 159.658829 400.864899
1009.247864 63.136753 476.349854
985.687500 425.000000 160.929977
713.982483 361.754395 484.604858
745.545471 520.272705 161.474625
792.111084 332.133331 175.125870
586.451233 156.963409 532.667053
969.222229 6.888889 555.952393
947.415100 692.264160 275.893677
1181.800049 713.299988 262.154999
1350.800049 930.799988 414.474426
606.448303 161.965515 299.476349
983.437500 37.562500 559.587402
1369.500000 974.000000 91.167419
607.125000 161.718750 296.994812
1325.063110 903.894714 435.473694
683.000000 387.000000 128.229248
944.504395 164.584076 534.539368
1115.000000 636.400024 251.173737
769.672729 541.393921 174.021271
1000.799988 5.600000 540.393005
1114.000000 637.000000 251.997314
926.769226 146.076920 526.300415
609.000000 161.647064 297.422913
691.312500 291.875000 434.703979
776.500000 495.075012 482.363861
1035.000000 509.000000 576.173706
776.510498 225.321686 512.045044
831.000000 239.000000 525.842834
1040.947388 520.263184 577.660706
1341.239990 920.640015 409.885162
603.857117 168.142853 291.020081
678.250000 294.666656 470.402649
1003.634155 116.731705 496.043304
1456.309082 917.854553 157.439835
612.714294 173.285721 338.148041
825.166687 237.116669 521.412170
998.640015 90.680000 472.016296
674.142883 199.000000 557.021790
1345.800049 925.400024 411.820618
704.142883 253.857147 578.853638
701.857117 303.340668 433.165710
690.000000 547.000000 101.233582
881.000000 150.000000 548.262939
1337.333374 916.333313 409.090546
1180.000000 925.000000 182.906799
1360.217407 950.869568 530.776428
1375.729736 948.364868 411.791534
675.650024 200.000000 555.046143
676.551270 200.760681 557.917480
1150.664917 913.297852 165.180283
979.947388 749.228088 270.805176
953.416687 48.750000 462.242950
631.000000 453.500000 598.364990
1121.000000 964.000000 642.290039
1315.277832 892.000000 409.992950
740.466675 415.833344 507.243286
707.702698 347.351349 468.215881
832.000000 239.000000 525.842834
873.285706 360.619049 206.895676
1098.066650 762.919983 451.299805
568.960510 173.276321 564.647522
1082.000000 752.000000 438.907745
612.000000 176.000000 281.738281
980.000000 444.500000 658.304443
1124.000000 665.000000 274.874969
909.500000 966.000000 625.360596
1178.000000 921.066650 169.538651
984.849976 38.000000 478.120056
833.695679 518.385864 300.949280
609.000000 162.000000 299.468445
1022.571411 24.214285 566.401672
1352.750000 933.000000 414.199890
642.000000 219.000000 562.904663
1457.000000 967.000000 158.770889
900.020813 651.937500 255.981857
603.750000 169.000000 537.968018
1346.500000 923.000000 426.096252
602.950012 154.199997 397.876678
1450.040771 950.020386 183.943314
694.123352 294.525970 572.643982
761.000000 494.139526 478.169525
743.799988 519.000000 162.111023
1005.424988 91.349998 472.617981
812.647034 217.529419 575.076904
1357.265503 947.035400 527.716553
1175.818237 920.969727 179.554886
1014.733337 733.866638 319.341522
722.055542 378.424255 401.291351
1032.826050 507.791290 567.574646
807.437500 561.531250 208.458298
1341.000000 920.000000 408.594849
1033.808472 717.234070 457.988678
739.136353 423.500000 501.155762
706.470581 481.794128 164.826736
1312.254272 887.372864 396.318481
1011.000000 694.599976 437.001282
766.277771 537.888916 171.531540
1349.000000 911.583313 381.046356
762.000000 106.000000 63.142334
1106.714233 964.571411 108.930290
1330.533325 908.799988 406.238464
1409.086182 959.724121 189.754333
1080.533325 751.533325 437.016541
733.615356 188.846161 572.478027
1162.294067 838.529419 570.460999
701.000000 255.333328 577.559021
552.393921 201.454544 162.438248
909.013672 40.794521 457.126831
765.764709 510.470581 484.898560
1168.956543 918.880432 177.714584
1144.000000 964.000000 637.714539
1306.500000 880.000000 397.270416
1011.076904 730.653870 319.442413
863.000000 378.000000 19.903564
993.309082 102.909088 538.737488
983.000000 444.000000 661.164124
745.071411 425.428558 250.297852
683.083313 388.750000 128.534271
1375.500000 953.000000 418.317871
567.849976 971.599976 188.500397
1264.750000 952.750000 619.469604
742.000000 417.200012 507.083160
745.000000 425.500000 251.997314
922.000000 340.500000 575.601685
1312.500000 680.000000 42.209259
795.909119 438.727264 240.097488
715.200012 340.399994 399.908966
985.189209 34.648647 548.547363
584.512329 119.049385 341.439056
1342.233276 918.866638 425.562469
582.250000 193.000000 565.363953
761.000000 490.000000 487.865906
1047.666626 868.333313 645.035400
1373.073120 944.146362 407.490051
987.135803 42.913582 560.129639
1231.344849 763.551697 377.000031
577.629028 150.846771 529.383362
1326.647095 904.588257 403.595428
683.334900 234.746414 562.903015
748.425659 202.048508 548.933350
590.777771 160.000000 534.078796
1125.807739 649.884644 260.532440
1375.666626 953.000000 419.843048
623.000000 180.500000 545.403198
732.607117 402.035706 496.632965
832.000000 239.000000 524.012573
1002.574097 496.907410 159.774963
1222.500000 602.500000 58.681152
1043.239624 523.338867 579.536316
958.888916 925.444458 62.544937
680.428589 301.028564 464.125458
1089.000000 760.000000 434.789795
1180.891602 922.686768 183.634491
985.457153 67.314285 460.425812
1067.000000 562.500000 588.527588
743.705872 425.941162 250.597763
764.000000 536.000000 172.039917
941.370361 358.592590 98.899231
1077.333374 933.333313 295.693665
709.157898 329.631592 390.672028
762.727295 492.878784 475.134186
732.000000 399.000000 496.445038
1170.112671 737.985901 290.201385
830.266663 240.266663 523.494080
641.000000 219.000000 565.764343
1405.000000 973.000000 151.564453
1313.500000 645.000000 0.571930
1009.500000 729.416687 317.942169
1168.000000 752.000000 300.497955
562.000000 974.000000 87.964539
620.500000 179.218750 283.239624
595.833313 163.666672 535.985229
584.000000 129.434784 322.167084
889.000000 82.599998 458.674042
537.000000 295.666656 129.296860
1354.568237 903.136353 296.556763
1183.352905 932.000000 171.313232
1169.296265 750.277771 299.934479
1328.000000 916.500000 596.992310
1044.000000 526.000000 616.895874
1169.031250 757.453125 303.564972
739.727295 334.545441 146.084183
680.625000 302.125000 468.048157
1253.780762 845.232849 367.756683
692.686096 308.811096 405.474609
776.760010 456.079987 248.167618
921.000000 340.500000 575.601685
770.700439 467.286926 250.341354
1181.990967 709.565613 303.696167
607.454529 170.909088 539.195068
688.000000 305.000000 407.565369
1347.599976 910.733337 381.195068
641.000000 220.000000 564.048462
580.289246 217.463608 166.558060
1012.000000 90.000000 473.224243
694.256775 325.567566 477.521515
1336.157837 915.105286 407.691803
607.637390 163.890106 402.752258
1054.000000 974.000000 66.230789
927.304321 346.130432 561.352905
749.613953 454.218597 451.476105
795.000000 440.000000 242.045532
832.400024 240.100006 524.378662
982.710144 749.666687 273.958221
1311.384644 860.661560 365.820679
1013.878784 82.848488 530.872437
693.556641 325.270935 473.276642
987.848511 24.757576 548.859131
1006.062500 777.187500 281.337921
1068.000000 563.000000 589.557129
1068.000000 562.714294 588.315186
802.180542 556.541687 205.533447
1226.666626 961.000000 77.745888
651.530640 209.326538 347.730957
1038.000000 890.000000 100.776062
729.000000 390.000000 410.081909
1347.026489 934.814819 518.518982
1173.500000 922.000000 182.906799
770.457153 157.542862 137.703842
730.391296 395.956512 496.047180
1099.590942 606.500000 614.306580
1007.195129 53.682926 562.580994
1348.000000 913.500000 382.171173
780.141174 451.364716 246.887543
1325.852905 905.000000 439.624359
867.500000 91.666664 453.015625
1119.000000 641.000000 254.651123
1426.000000 965.000000 175.471558
1363.604126 954.500000 533.716553
980.333313 907.333313 66.688339
1123.333374 968.166687 95.209152
1231.800049 803.000000 611.039185
992.000000 11.500000 549.178040
775.645142 220.000000 498.983734
1449.515137 948.363647 199.874405
567.562500 972.375000 192.544022
1306.875000 856.075012 366.877472
1107.660034 881.880005 155.288910
732.000000 399.000000 495.529938
551.054077 963.148621 224.670898
1152.210571 915.421082 165.808777
1316.000000 908.000000 624.788696
788.219971 357.600006 214.043304
928.478271 350.782623 563.665527
1007.545471 716.000000 98.862640
601.142883 151.857147 399.084290
1179.352905 713.000000 261.256042
742.000000 427.000000 506.168030
787.533325 446.733337 244.096909
941.000000 358.000000 97.230003
1108.000000 925.000000 146.645752
924.530884 344.432098 581.648743
1122.774170 646.580627 258.019318
1169.290039 745.992371 296.211456
1353.468140 905.074463 303.525604
813.098389 217.540985 576.839355
885.378357 643.135132 240.085495
886.200012 361.540009 204.663467
645.210510 215.610519 356.227905
792.442322 547.461548 200.087051
732.166687 401.166656 495.301178
747.441528 521.051941 163.126556
776.722046 218.067093 498.879730
1316.000000 908.000000 625.017456
796.000000 550.857117 201.306992
1300.000000 868.000000 393.609985
627.135925 185.708740 277.763550
987.500000 424.000000 163.460815
771.500000 553.500000 170.552887
1064.000000 974.000000 649.610962
703.653870 319.384613 373.926422
1056.636353 717.000000 632.681458
1159.890625 911.578125 148.904907
739.250000 406.500000 509.256531
998.681824 769.113647 278.036255
748.912292 201.210526 544.600525
606.973999 183.480515 560.664429
929.466675 146.600006 524.927734
895.518494 652.444458 245.811890
644.599976 222.617386 564.608521
686.948120 202.979248 557.838318
738.000000 336.000000 146.645752
1008.000000 729.500000 318.914490
1056.699951 716.000000 632.452698
771.485718 467.685699 252.402588
793.000000 441.151520 240.977921
1379.333374 951.583313 413.246643
637.000000 459.000000 120.450806
915.500000 661.055542 270.833252
1066.000000 492.000000 80.186157
1296.000000 881.000000 623.072876
910.470581 176.789917 529.784912
869.174988 369.862488 209.685104
992.000000 7.500000 549.178040
1108.444458 628.857117 246.368698
803.478271 432.217377 237.171616
770.192322 461.442322 250.387100
793.623169 327.710144 168.392761
1161.000000 840.000000 567.022583
752.000000 458.666656 454.083252
534.000000 471.000000 104.894043
1169.527832 740.263916 292.649658
724.718262 386.182312 406.251495
680.918396 232.979599 562.374695
1004.000000 775.000000 281.051941
745.958313 371.604156 297.133026
1168.000000 759.465088 304.746277
1119.989258 662.892456 274.330109
621.140137 188.859848 413.441620
1149.495361 909.880737 150.782608
597.309509 147.809525 405.675232
623.875000 181.375000 281.223541
1124.000000 968.000000 94.370300
817.236389 233.854538 517.798218
683.391785 305.865509 469.442719
1004.000000 499.000000 161.973755
1253.063110 847.200012 369.909943
696.239136 316.423920 561.340515
650.923096 213.653839 350.160065
789.818176 568.818176 178.289688
751.000000 458.500000 455.837219
769.333313 463.222229 252.200684
1347.171387 935.428589 532.539429
1370.066650 939.900024 404.286224
1169.307739 741.538452 294.030609
741.000000 430.000000 501.592529
1168.000000 744.500000 294.549744
744.714294 433.428558 506.745422
682.428589 303.857147 465.086304
855.500000 631.500000 211.275101
796.270264 327.702698 167.792114
686.890137 201.417587 554.752869
1085.459473 758.162170 431.639465
1229.823486 761.117676 374.675385
1069.151489 564.666687 589.834412
1449.000000 949.000000 202.124023
944.521301 161.457443 539.549927
1068.800049 564.533325 588.580994
905.296875 145.328125 519.580078
826.565247 233.641312 579.117920
859.589539 270.327515 155.108475
978.000000 410.000000 97.115601
1155.285767 914.000000 169.180222
838.426697 241.360001 527.403076
848.555542 242.000000 554.960999
1141.500000 964.000000 638.172119
1355.000000 902.000000 293.977814
690.486511 320.972961 471.554779
729.704529 394.272736 494.477051
750.875000 460.250000 454.407349
726.683533 390.746826 410.077576
1156.289429 915.894714 169.366852
638.000000 464.000000 119.993286
640.000000 466.000000 120.222046
736.681824 373.181824 417.849915
1123.000000 964.111084 641.730835
747.223328 447.009705 447.162598
1451.500000 943.333313 192.896729
752.000000 459.000000 455.837219
932.333313 355.000000 581.359253
1355.466675 903.000000 292.727173
928.000000 695.000000 250.167114
868.000000 676.000000 161.744995
898.589722 85.384613 463.125793
791.821411 442.857147 242.723709
1004.671631 55.343285 476.966614
574.031250 148.052078 530.527954
1186.160034 714.239990 307.475647
687.395630 313.595642 470.108887
692.548401 341.516144 582.166138
1344.000000 905.000000 375.536652
595.629211 163.213486 531.725464
1256.800049 853.599976 373.614929
743.606812 436.115387 503.011139
601.221252 149.327438 394.592926
966.000000 165.000000 526.757935
605.000000 451.000000 116.332855
797.933350 552.333313 203.039154
715.379089 364.294128 487.261078
604.947388 146.105270 365.970184
599.285706 150.000000 412.827209
921.666687 969.416687 626.199463
1010.037964 780.924072 284.275085
630.000000 456.000000 598.136230
782.317444 216.396820 499.573486
842.923096 242.461533 529.784851
1294.098389 851.737732 365.483612
639.000000 466.000000 119.993286
1008.000000 693.500000 435.476105
1009.000000 691.500000 434.789795
746.166687 371.916656 299.392181
1285.000000 973.000000 41.751709
995.448975 46.204082 477.715729
967.318176 161.545456 519.005554
797.176453 332.764709 173.574081
584.232117 193.750000 567.990845
1382.104492 955.850769 416.492767
521.000000 278.000000 110.842224
993.099976 765.599976 274.005615
752.000000 460.700012 454.739075
804.000000 544.000000 181.991699
559.603943 971.098999 217.967392
1444.000000 969.916687 212.971863
567.195312 174.179688 567.181702
809.750000 215.171875 574.733093
663.960388 244.594055 570.423645
1285.250000 972.000000 42.323647
689.134399 342.399200 580.476562
751.000000 460.333344 456.142242
586.862732 221.245102 170.171585
889.509460 366.641510 205.611801
725.857117 550.428589 122.738586
931.000000 352.666656 584.104614
1279.599976 852.000000 368.925018
804.000000 544.000000 181.534149
1464.000000 965.500000 165.062256
891.910095 648.078674 245.961746
1060.833374 550.166687 586.316101
1315.000000 681.000000 42.666809
1005.285706 500.571442 161.369141
1330.000000 926.000000 626.962036
888.342102 647.289490 240.642792
1352.448975 916.632629 385.243317
549.116882 199.779221 159.439392
1276.000000 855.333313 621.090149
988.333313 70.111115 460.209381
999.722229 51.000000 477.520142
858.580627 115.322578 470.386658
912.000000 139.000000 520.352173
1075.517822 748.803589 432.616394
1232.000000 804.000000 611.062073
1326.073730 905.915771 442.217773
596.937988 148.682175 412.790863
775.428589 340.000000 176.550110
929.428589 613.285706 262.259583
767.433960 518.358521 497.942871
994.000000 766.333313 271.214569
707.250000 327.612488 392.726349
681.000000 389.000000 129.144348
1161.803955 916.627441 173.479874
1189.222168 717.222229 308.365326
1187.362305 716.289856 310.963654
928.454529 613.545471 261.079071
700.470886 315.132263 356.714630
1032.209351 506.418610 564.631104
852.500000 241.000000 551.237000
745.775024 443.250000 504.103333
1354.000000 904.000000 291.346893
995.333313 763.777771 277.925323
580.210510 113.421051 337.631989
887.235291 642.823547 244.091080
760.636353 490.939392 474.104675
1263.300049 877.500000 568.074951
802.853638 605.780518 167.271896
907.000000 40.500000 455.379639
1195.000000 724.000000 262.521057
614.250000 175.250000 541.857178
908.526306 36.723682 460.161896
752.341492 378.341461 277.073456
1159.333374 835.695679 567.684082
1398.518066 960.325317 196.579666
1269.000000 833.000000 361.581299
648.925659 250.783783 470.168213
579.500000 152.000000 525.385254
1187.928589 923.690491 186.185944
1380.000000 970.000000 578.918945
917.930237 336.372101 575.059021
1195.567871 724.851868 323.399628
617.470581 209.000000 558.275269
591.000000 221.928574 172.938705
952.605286 696.052612 279.450500
683.081421 290.046509 435.433533
1201.423096 728.384644 314.488525
601.000000 442.000000 117.476730
985.666687 753.333313 274.519104
1255.000000 877.129028 570.328796
919.426208 336.885254 577.319397
894.000000 298.000000 688.502930
932.500000 615.000000 261.377167
689.700012 315.985718 476.583984
1452.696411 939.339294 184.835068
660.946655 215.653336 431.445068
781.437500 586.750000 158.113159
1350.250000 911.250000 365.241699
1009.666687 79.000000 507.845734
1327.500000 928.000000 627.648376
1279.750000 853.000000 368.959320
1199.599976 728.200012 328.134155
1454.000000 923.500000 164.604675
626.979187 183.062500 280.632538
1455.863647 922.090881 163.824783
837.785706 523.357117 303.504730
749.369507 420.016052 245.401855
990.155151 759.758606 275.537628
1006.542847 501.114288 162.999985
1191.609131 719.909119 313.808594
706.250000 343.500000 464.416321
579.370361 111.370369 336.797150
1357.727295 924.000000 391.239044
1128.500000 898.583313 163.537064
1105.235352 623.823547 243.337463
1004.000000 781.500000 270.299438
787.276184 591.990479 160.455124
1030.148193 504.000000 569.534912
1366.160034 958.159973 536.732605
1352.400024 913.400024 364.921417
745.415833 442.534668 443.742645
1196.309082 724.090881 312.309052
1235.396973 768.671753 383.738556
770.000000 158.000000 139.668060
652.799988 213.000000 348.449493
920.529419 340.500000 581.375000
995.210876 145.734695 498.100189
857.782593 97.434784 468.768066
1406.416626 973.333313 154.710114
766.870850 515.335815 489.285431
996.925903 723.444458 309.831177
1355.857178 921.285706 389.492004
538.333313 292.666656 129.430298
1280.500000 853.000000 368.558960
726.250000 383.899994 492.447998
660.363647 213.090912 428.228058
1398.750000 970.500000 156.754791
953.628418 51.874317 521.939880
1385.084717 959.932190 420.785950
1013.666687 785.444458 287.178070
805.000000 543.000000 181.991699
848.094360 242.603775 557.381592
728.823547 346.823517 141.478088
1002.596802 725.911316 314.106476
793.924988 225.899994 564.360229
747.162170 444.864868 506.594696
1452.779297 937.627563 180.088135
996.250000 722.000000 309.477417
1100.111084 763.611084 458.086853
1424.000000 965.000000 172.840637
1043.500000 707.916687 447.715637
1361.571411 928.785706 395.153076
535.000000 536.000000 101.233582
835.953125 244.250000 580.527588
798.900024 363.600006 208.758560
647.987793 225.628052 567.184448
1115.250000 623.750000 265.952698
934.000000 615.000000 262.063477
981.000000 905.500000 66.688339
910.000000 139.000000 520.123413
1169.000000 764.000000 307.681549
728.666687 346.666656 142.527771
792.000000 485.333344 116.332855
749.071411 454.321442 505.195740
1006.000000 783.333313 269.994415
1330.000000 927.599976 626.596008
782.315796 437.605255 245.338730
1125.000000 964.000000 641.832520
1366.647095 935.794128 400.796265
536.428589 292.571442 129.340424
617.723206 192.610718 264.684631
1423.750000 963.875000 172.526077
1103.000000 767.099976 453.160522
748.000000 451.166656 506.206177
737.037048 371.851837 419.610016
939.375000 616.125000 261.396240
685.500000 308.000000 475.626373
876.599976 61.799999 453.183411
995.000000 723.000000 308.619507
870.644897 672.847839 165.465088
1351.028564 906.828552 312.682587
1071.000000 567.000000 589.740112
1348.000000 905.000000 309.191467
1193.036377 721.581848 319.975159
617.294128 228.294113 186.567245
794.083313 225.500000 566.288635
1009.684204 713.421082 98.361855
914.402771 163.666672 564.239136
827.866638 573.133362 226.618378
845.333313 628.333313 200.293839
786.907349 227.428574 510.044434
936.021729 145.456528 498.429443
1167.875000 764.562500 307.582886
830.054077 577.027039 226.102295
1455.000000 926.258057 169.028931
994.470581 47.705883 561.074402
610.708313 169.291672 405.258545
634.500000 459.000000 119.993286
931.019592 669.176453 286.062592
788.629639 542.000000 199.916763
926.000000 665.950012 280.754547
1128.000000 968.000000 92.997643
1454.000000 926.451599 169.235580
810.275879 214.844833 576.942810
697.000000 315.000000 402.761047
940.823547 615.823547 262.278809
616.400024 210.000000 558.420593
1359.000000 949.000000 565.764343
947.644653 158.198349 541.495117
1103.619019 622.952393 242.579361
955.652161 697.869568 281.061890
727.788208 394.376465 411.682007
1111.714233 661.428589 273.240875
919.956970 663.032288 274.952454
637.000000 191.000000 540.942078
1110.152222 618.891296 264.391052
756.000000 481.500000 505.596100
935.333313 360.166656 569.005310
1012.000000 79.000000 507.540710
934.054077 358.405396 568.101562
563.818176 956.636353 158.022171
725.000000 549.000000 122.738586
1364.400024 932.000000 399.032013
1314.658569 864.878052 363.431030
685.620667 214.889648 559.140076
1353.674438 928.697693 427.051270
730.000000 346.666656 141.688904
579.400024 111.800003 339.527222
568.388916 145.666672 559.218811
1120.114258 629.799988 267.188080
992.009827 719.705872 306.327271
929.000000 113.000000 515.319092
1312.666626 647.666687 0.114380
1284.171387 851.942871 367.591583
808.427063 490.864594 289.180664
729.000000 345.000000 141.955811
740.063416 428.882935 256.614716
1372.000000 944.000000 428.955963
1105.000000 623.000000 241.816772
696.173584 202.500000 556.776917
922.909119 665.000000 277.869873
773.000000 341.000000 173.755737
612.587158 190.844040 264.619904
1424.000000 963.750000 171.639572
730.000000 346.000000 142.527771
1020.500000 738.500000 318.685669
753.010132 465.335022 458.643494
1200.690430 730.238098 331.469940
1016.915039 788.790833 288.386993
1190.074951 925.174988 187.448029
1417.500000 963.375000 223.857819
1142.666626 905.000000 144.853653
1129.000000 968.000000 92.997620
879.500000 58.000000 452.176788
768.166687 520.333313 496.445038
988.808960 426.584259 166.816635
997.000000 448.500000 293.291504
1418.666626 967.000000 165.062241
626.605286 182.578949 282.930328
919.704895 611.754089 261.067749
755.125000 475.479156 506.730469
900.000000 240.000000 611.634033
775.727295 473.454559 250.832642
728.666687 378.000000 505.367340
661.000000 211.199997 429.642303
832.000000 239.000000 579.262146
790.411743 595.352966 161.395096
749.263184 193.210526 562.543396
754.000000 475.250000 505.596100
1348.666626 937.833313 537.510437
696.895813 202.388885 554.625793
1343.944458 930.666687 514.556519
694.363647 316.787872 436.259491
986.000000 756.000000 269.384338
741.000000 312.000000 151.564453
1214.000000 923.000000 609.689453
538.500000 292.250000 131.003143
730.000000 345.000000 141.955811
919.428589 611.142883 262.194214
811.000000 231.666672 515.929199
537.000000 291.000000 128.686768
660.599976 240.000000 569.767944
947.636353 364.000000 98.415489
1048.444458 531.444458 573.682556
1048.833374 532.333313 582.274353
1010.000000 712.636353 97.209198
1330.886353 912.636353 458.873688
1360.000000 951.250000 521.152893
1214.000000 924.285706 608.839722
754.941162 472.735291 463.285919
1364.461548 933.076904 397.983154
875.461548 287.230774 583.670471
948.411743 618.000000 261.498291
642.000000 408.000000 591.272949
606.222229 148.888885 369.702850
1455.066650 936.400024 185.743637
1083.076904 758.153870 427.143372
994.190491 151.023804 500.274323
1361.577759 935.711121 427.618896
860.500000 100.000000 449.889038
948.851868 617.407410 262.283783
1124.000000 635.000000 268.011688
1212.461548 918.384644 609.231873
807.794128 427.882355 235.363922
1359.000000 950.000000 564.591858
782.799988 537.400024 200.476852
1212.000000 916.181824 609.419067
939.666687 87.000000 537.739197
1453.339233 931.426880 177.011475
739.900024 312.600006 152.731186
1270.959229 830.244873 360.136261
1320.561890 951.108276 214.027496
1328.217407 906.695679 447.317780
1330.000000 910.000000 454.006989
997.647034 449.000000 296.137726
757.584900 484.141510 507.318420
576.521484 108.295700 335.503235
992.500000 71.500000 459.726410
1318.000000 682.000000 43.467529
812.545471 231.636368 514.528809
1038.095215 722.238098 462.363892
860.500000 346.500000 45.869671
822.647034 565.411743 227.800842
862.428589 346.428558 45.918694
968.290344 706.419373 290.070160
729.181824 378.181824 506.490417
870.901123 675.527466 166.956573
1318.000000 682.000000 43.696289
894.250000 124.000000 455.265259
999.000000 449.000000 298.210205
965.625000 703.750000 287.972443
712.000000 338.799988 534.902344
1297.333374 864.333313 394.995361
710.599976 337.600006 534.993896
712.000000 339.000000 535.908997
910.225342 609.732422 260.985687
776.759277 582.444458 156.707672
1445.793091 971.241394 214.067749
784.000000 434.000000 244.676483
1455.000000 929.866638 175.410583
1346.833374 907.666687 365.012939
910.833313 609.333313 262.216003
776.000000 474.000000 251.997314
577.777771 109.666664 339.072205
707.714294 334.009521 538.532288
793.000000 485.000000 115.303345
799.833313 365.333344 210.817551
520.451599 957.000000 180.176254
1235.567627 765.810791 446.225494
894.000000 298.333344 686.825256
1398.651123 959.813965 189.099747
750.772705 462.181824 505.336121
538.375000 291.000000 129.802063
1066.000000 944.000000 85.676788
925.750000 338.750000 557.185181
592.000000 225.000000 166.892456
793.285706 484.904755 116.599754
752.000000 463.750000 505.157623
545.000000 102.875000 292.719543
1211.000000 913.500000 609.689453
756.428589 478.380951 466.753113
947.250000 363.000000 97.859146
712.571411 340.285706 536.023376
1391.000000 968.000000 159.686005
895.000000 372.000000 207.614685
982.333313 905.000000 66.764595
935.666687 672.166687 290.673279
1279.000000 966.333313 626.428223
997.866638 51.266666 561.531982
750.722229 463.666656 506.015533
520.000000 274.000000 109.927124
1004.609375 688.507812 431.778137
1325.000000 902.187500 474.239410
1238.000000 770.000000 446.686157
618.000000 183.000000 411.454559
786.480408 429.696075 243.676147
545.000000 102.000000 291.690063
1019.000000 497.000000 629.707397
775.333313 526.500000 202.429077
743.913025 438.086945 441.573486
729.608704 465.347839 161.008926
1369.291626 961.604187 539.455017
543.642883 102.142860 292.360046
1342.285767 928.571411 516.364929
997.750000 448.250000 288.105896
960.862732 700.980408 284.725830
547.095215 103.952377 294.990967
1099.839966 606.719971 617.440369
660.000000 208.044449 425.692108
998.000000 450.350006 301.287231
752.719971 464.679993 506.959625
763.270264 504.459473 509.661530
1073.000000 573.000000 592.187988
1222.000000 849.000000 560.388062
1088.599976 927.200012 282.378845
610.366638 226.000000 183.410126
541.907410 101.851852 290.313171
1247.042969 873.344116 569.097595
1126.199951 636.200012 268.835266
790.111084 593.777771 162.647385
901.000000 147.500000 518.579163
1221.000000 851.000000 560.845642
1223.000000 967.000000 35.345947
1105.714233 613.142883 262.782501
1239.166626 771.000000 445.160980
581.698120 129.075470 317.494324
1233.800049 762.799988 444.855957
925.500000 970.500000 626.046936
984.683655 714.826538 301.441071
776.111084 527.888916 201.361450
475.730774 82.444443 156.154633
1389.722168 959.833313 194.243958
731.000000 464.000000 163.232056
1319.000000 890.000000 383.772614
552.295105 965.967224 229.444092
737.676453 374.666656 421.801086
527.777771 298.111115 113.727325
538.250000 291.000000 130.802979
768.500000 567.541687 150.763718
1226.953491 757.883728 370.703094
761.000000 500.333344 508.608337
1204.192993 734.421082 336.329559
1340.857178 928.285706 518.652710
1357.568848 902.321106 287.998138
1160.000000 686.000000 303.700806
1231.000000 760.000000 445.771057
1010.111084 789.888916 268.367554
1328.000000 907.000000 477.067688
1231.000000 760.000000 444.550903
849.922058 630.350647 206.032562
729.625671 398.972076 414.690033
520.000000 273.000000 110.384644
972.340759 658.807434 403.912567
1332.159058 914.750000 460.870300
798.696960 602.060608 165.325684
1155.370728 830.797729 563.959839
766.172424 514.689636 510.392517
719.337830 372.270264 489.751801
979.576904 711.538452 297.743835
862.470581 346.294128 47.726807
1104.355591 767.066650 461.277008
776.400024 475.100006 250.624664
975.901123 709.857117 295.478699
551.065247 105.869568 297.230438
1361.000000 935.000000 428.955963
860.349976 346.299988 47.677013
529.000000 298.000000 112.672424
934.000000 359.000000 565.535522
1074.166626 571.833313 591.196655
861.000000 345.000000 46.327209
1057.866699 545.133362 586.239807
862.500000 345.000000 46.327209
1101.606079 620.393921 240.191071
981.000000 713.000000 298.553345
1203.444458 799.555542 598.746277
519.000000 274.000000 109.583923
656.387573 235.062134 569.114746
950.076904 47.461540 522.367188
786.578918 427.894745 241.286972
937.541687 672.583313 292.652832
841.924500 527.641479 305.563416
1244.466675 777.933350 446.312469
972.083313 707.916687 292.719543
1243.000000 776.000000 445.313477
762.000000 498.357147 509.109467
1421.500000 966.000000 159.411469
1073.000000 571.000000 589.900269
1230.500000 759.000000 445.771057
1340.312500 899.484375 371.722534
956.000000 619.599976 261.605957
948.000000 364.000000 96.772453
760.411743 495.529419 508.469269
1311.000000 648.000000 0.114380
885.400024 355.000000 201.300446
980.833313 712.000000 299.163422
731.000000 402.000000 418.889801
956.571411 619.285706 262.390320
865.909119 373.636353 212.325394
1323.800049 951.400024 211.092087
1358.000000 933.000000 427.926483
722.790710 376.813965 490.462280
1217.270630 845.270569 558.804138
1022.094360 739.264160 319.415192
1239.000000 772.000000 387.966858
1226.175659 854.763489 561.884399
768.305115 521.016968 493.228607
642.285706 406.392853 590.594788
628.000000 465.000000 599.737671
620.307678 195.000000 263.858521
599.629639 144.925919 386.221375
1205.206299 832.460327 554.430847
947.260864 362.652161 96.653091
1358.478271 948.826111 563.297546
776.428589 475.285706 252.520233
1209.760620 837.112671 556.642273
716.064148 344.781128 531.684387
1239.000000 773.000000 387.966858
628.333313 463.666656 599.585144
774.000000 527.000000 200.751404
1322.695679 897.826111 471.975922
864.333313 86.666664 452.176788
642.000000 406.500000 588.870728
758.786316 484.940186 470.717468
807.222229 496.388885 280.441895
1169.000000 768.000000 310.106567
1238.000000 773.000000 388.348145
800.099976 366.500000 212.647766
809.365845 230.682922 513.756714
792.768127 596.275391 162.955185
1326.553589 952.267883 212.774414
574.000000 148.000000 525.385254
1022.166687 17.166666 566.565063
1310.000000 948.750000 217.566467
784.820496 495.384613 484.900635
1055.250000 541.150024 584.707031
1078.734131 761.797485 498.541687
1045.500000 841.500000 254.742645
518.599976 274.000000 108.897606
1212.000000 838.750000 556.956421
938.000000 673.000000 294.206604
575.000000 974.000000 181.305374
1069.333374 745.666687 426.591949
743.736816 436.157898 439.576019
1210.500000 840.000000 557.871582
819.391296 559.095642 228.917755
1296.000000 862.000000 394.410706
1201.000000 830.000000 553.982300
1274.924561 826.490540 357.694244
699.633789 310.669006 354.115448
766.000000 112.750000 66.573952
729.827576 465.482758 162.912537
1073.480713 757.269226 493.853699
976.967712 663.741943 407.672363
700.046509 318.627899 399.949249
979.000000 664.750000 408.423279
978.000000 664.666687 409.052399
1207.000000 738.000000 340.762604
575.000000 974.000000 181.991699
1029.867310 502.442474 562.553345
1223.000000 927.000000 154.996094
652.000000 229.000000 569.310364
651.000000 230.000000 567.785217
1387.800049 963.299988 422.481598
1238.000000 773.000000 389.034485
1306.000000 851.142883 362.136871
826.469727 500.742432 569.143982
701.058838 319.588226 397.923096
1056.000000 729.000000 638.172119
612.000000 172.000000 408.823639
608.000000 960.000000 80.986877
618.520020 193.000000 261.537323
1342.272705 928.227295 513.509705
1074.555542 573.222229 590.764526
1330.416626 911.083313 478.371704
730.880615 404.388062 417.684448
1351.000000 940.500000 543.916199
622.561523 149.323074 341.983948
999.000000 452.000000 306.446136
1380.272705 960.000000 182.892944
1202.000000 828.250000 553.867981
1159.571411 825.904785 566.799255
967.178589 654.142883 399.533661
608.000000 154.399994 374.484283
804.000000 485.777771 287.737305
770.000000 353.000000 226.603134
611.666687 164.437500 384.063354
1048.615356 850.000000 643.979492
1075.733276 758.799988 496.277283
1076.000000 760.000000 495.529938
853.000000 248.000000 557.413940
599.679993 222.210007 177.631226
1053.290283 537.612915 584.084900
862.523804 344.642853 48.108418
1264.094360 832.830200 570.585876
1242.384644 868.615356 567.585754
860.318176 344.681824 48.209435
1047.136353 733.363647 405.423187
1395.000000 968.500000 94.370300
1013.833313 795.500000 267.172821
1424.250000 877.000000 89.451607
1108.375000 771.000000 461.404114
610.366638 160.300003 380.539246
1011.925903 508.975311 166.885391
1466.365601 967.526855 168.330307
527.000000 299.000000 112.214874
1054.000000 539.000000 586.239868
1232.333374 857.333313 563.209656
1330.400024 952.966675 210.809921
779.098572 361.450714 215.592865
999.000000 453.000000 307.132477
695.719971 308.399994 396.442261
1049.526367 734.473694 407.499146
1377.107178 959.321411 180.782455
783.428589 521.952393 217.108917
965.875000 653.000000 398.156921
1017.676453 515.705872 171.151733
1154.641846 828.208984 562.926819
941.492737 674.246399 296.388275
966.000000 652.000000 398.986237
864.000000 374.000000 210.359985
918.200012 160.800003 565.901611
1015.770813 513.104187 169.971405
769.750000 569.187500 152.336548
928.894714 146.421051 498.847198
1017.000000 514.000000 172.039917
785.222229 522.444458 217.833359
1230.666626 860.666687 564.124756
865.000000 375.000000 211.732666
1340.000000 899.500000 368.558960
1240.357178 775.000000 390.341766
797.043030 228.935486 511.571350
1050.441528 850.350647 253.095154
1042.000000 725.333313 465.293304
1248.800049 784.224976 447.097961
608.722229 209.000000 556.918274
755.000000 375.666656 272.892242
1310.500000 649.000000 0.114380
1327.125000 953.250000 160.572510
1068.366089 752.883911 489.224274
1333.824097 917.092590 470.705566
1196.765381 824.987671 551.708679
1353.333374 942.333313 549.279724
751.695679 415.913055 241.160278
1238.000000 771.333313 390.559631
1388.500000 959.770813 185.413834
930.000000 139.000000 525.232727
1043.666626 730.981506 401.511261
472.796539 77.688309 154.900513
1167.381348 769.589905 311.353302
697.808533 310.127655 354.148468
1246.536621 847.048767 367.677338
606.375000 223.750000 182.563644
1107.666626 768.916687 466.971008
865.000000 375.000000 212.647766
1102.809570 610.000000 262.368530
982.929077 669.063843 412.454865
1089.000000 929.000000 281.738281
1023.000000 797.000000 288.078644
561.826111 973.304321 223.977173
683.820984 224.314575 560.782166
479.269836 89.408730 158.243439
1239.170166 866.191467 566.723267
732.767944 408.508301 421.515045
1240.000000 872.000000 566.107544
609.310364 157.620697 377.323486
1246.676514 847.294128 369.507721
1211.599976 738.200012 317.221497
1234.162842 862.674438 564.859863
1361.142822 921.142883 366.058777
1321.333374 894.333313 384.153900
902.000000 608.000000 262.063477
877.324463 144.168442 550.048523
1084.525635 766.974365 503.208618
1099.142822 607.428589 619.265381
702.666687 327.151520 542.467285
736.263550 201.186050 550.252747
1396.000000 969.000000 94.370300
1210.256470 741.230774 345.646118
1100.875000 608.375000 261.281860
770.500000 520.750000 201.437714
1287.000000 974.000000 628.563477
699.564087 323.692322 544.188965
1190.342163 820.736816 546.944458
735.610840 416.073883 426.292938
754.000000 375.600006 271.123047
797.641052 230.025635 512.963867
806.734375 539.390625 179.060516
616.116028 179.397797 410.325226
1275.615356 806.692322 350.318451
698.054565 321.381805 546.842407
755.000000 375.000000 271.672119
1226.714233 753.333313 444.899506
862.000000 344.500000 49.644470
1371.142822 959.142883 179.573212
605.750000 222.937500 180.533264
1065.578979 743.894714 423.423187
998.000000 454.000000 308.619507
1020.854858 519.814514 174.261276
860.500000 344.500000 49.644470
531.599976 95.000000 281.189209
646.561340 246.941788 472.105316
1276.961548 818.076904 354.647583
789.608093 526.891907 220.188110
1361.415405 906.646179 285.687317
1333.500000 955.000000 210.359985
997.599976 454.000000 309.122833
742.625000 434.125000 437.992645
532.571411 95.000000 282.784119
1396.500000 970.000000 94.370300
1099.777832 656.111084 272.561798
1291.000000 875.500000 389.492004
768.269226 347.399994 239.771866
1188.985474 939.536255 167.146103
613.400024 195.000000 262.612549
1211.448242 743.000000 347.038208
706.887878 202.364487 556.350281
535.000000 539.000000 101.347977
604.000000 225.000000 182.449280
1239.000000 772.000000 391.627258
854.925903 245.222229 534.316040
773.266663 578.706665 155.781540
631.500000 185.000000 282.539001
753.166687 413.250000 242.636551
953.223877 48.582088 519.280029
1055.052612 737.957886 412.850098
767.253540 351.366211 243.373093
768.763184 518.815796 202.834457
1039.818237 728.954529 397.426392
962.064941 648.545471 395.123779
886.653870 352.461548 202.722382
737.552612 420.144745 430.084808
555.014954 108.776123 301.063049
946.000000 311.000000 733.343140
1046.233276 857.599976 257.030396
721.000000 353.571442 523.816528
1110.000000 770.611084 469.411285
774.199036 218.655334 491.164307
720.229187 350.812500 527.939941
735.473694 385.947357 514.102966
1335.500000 954.000000 209.673676
739.000000 422.000000 430.824310
1048.300049 711.099976 447.875793
1275.599976 805.000000 347.717407
603.500000 224.000000 181.991699
608.000000 210.000000 556.544678
1339.000000 928.000000 575.830505
1189.250000 819.000000 545.803589
1285.352905 973.588257 628.772095
1423.750000 876.000000 89.337219
541.000000 379.500000 112.672424
715.316833 202.148514 556.291626
1050.181763 850.090881 643.995483
531.666687 94.000000 282.500854
724.754028 356.139038 523.561768
722.803894 353.098053 527.197571
722.714294 202.000000 555.894287
649.500000 250.000000 475.626373
518.000000 271.000000 109.583923
773.666687 190.000000 583.036987
569.571411 961.523804 156.041916
1188.357178 820.000000 544.716919
570.000000 119.062500 314.367523
1387.035767 957.214294 309.077057
1252.307739 788.538452 447.249298
518.000000 271.000000 109.355164
1339.000000 928.000000 575.601685
1397.103394 970.724121 95.423462
805.250000 494.000000 278.192230
612.452393 192.571426 260.756195
1020.956543 791.782593 292.416168
738.000000 423.421051 431.472504
629.833313 207.000000 403.828674
1199.760010 727.479980 263.088409
937.906250 93.750000 540.556030
675.200012 284.418182 435.147491
1417.140625 966.781250 229.441391
600.411743 166.941177 524.066467
1319.351318 892.837830 469.764771
707.891296 202.126083 553.693909
946.058838 677.000000 300.827667
773.945068 220.000000 490.506927
695.290588 317.957275 548.899414
1053.378418 745.094604 384.131226
847.272705 534.045471 308.276337
928.666687 971.000000 627.038330
1215.000000 741.333313 319.295776
1336.750000 896.500000 370.732361
1378.357178 959.857117 197.025604
1062.000000 741.714294 419.837585
539.625000 380.625000 113.987885
1245.666626 763.000000 373.401398
529.333313 93.333336 280.213104
765.371399 356.342865 246.454391
1053.166626 849.666687 250.777191
1284.333374 973.666687 627.991577
1250.428589 953.428589 60.249920
1386.294678 954.482117 307.381683
605.900024 209.000000 554.920349
769.119995 525.400024 512.010986
999.171448 453.828583 312.809387
662.433350 317.450012 576.810425
1389.000000 956.666687 307.806091
1059.741943 740.645142 417.435974
1337.599976 955.000000 208.895828
662.000000 320.000000 575.601685
739.588867 376.822235 424.794769
614.797791 177.136612 406.929657
659.137939 200.068970 420.301910
762.268311 363.268280 252.563690
1256.083374 795.055542 449.520447
662.000000 320.000000 576.974365
1086.500000 769.000000 505.824890
847.095215 535.333313 309.153320
1072.000000 495.000000 78.813477
999.807678 684.288452 427.543732
816.000000 553.000000 229.806000
1329.285767 952.285706 224.478775
762.628845 360.845367 249.407669
1065.000000 748.941162 486.567291
696.166687 319.458344 439.565491
1199.375000 727.625000 261.377167
928.750000 972.000000 625.818176
926.000000 116.666664 517.606873
1224.126709 754.577454 365.987640
802.500000 229.000000 511.658691
1057.500000 747.000000 390.635895
559.312500 111.750000 304.072571
849.000000 535.000000 308.345001
1381.338745 949.548401 304.962799
1040.750000 835.250000 255.314575
1087.000000 770.000000 505.596100
1282.000000 812.000000 351.743896
1064.500000 750.000000 485.463776
875.000000 676.000000 171.582382
772.500000 537.187500 513.574707
1025.000000 524.000000 176.729843
717.916687 323.500000 471.794373
740.228271 427.326080 434.117126
1049.294067 743.411743 377.602356
1283.000000 973.000000 628.220337
1360.500000 922.000000 315.368408
542.325317 195.813248 158.378113
1043.538452 727.923096 467.346436
1035.375000 726.041687 393.050781
1421.476196 968.000000 232.823669
799.490173 479.764709 286.349701
1024.000000 525.000000 177.416199
753.171448 412.485718 240.617325
810.500000 700.666687 561.150696
1373.587769 965.745605 543.298096
861.000000 342.000000 49.415710
1360.333374 924.333313 311.326721
1018.073181 801.170715 265.715546
1096.666626 654.000000 272.205933
993.344849 678.793091 422.039032
997.888916 683.444458 426.248779
1377.145874 945.208313 302.447327
771.000000 531.250000 512.916992
878.333313 291.333344 583.189453
1096.599976 655.900024 271.443329
861.000000 342.000000 49.644470
1282.714233 973.285706 627.697388
1273.640015 798.799988 347.050903
725.811951 201.522385 551.640991
775.000000 189.000000 583.952026
1334.546875 917.687500 479.276093
987.333313 673.571411 416.531219
1048.000000 743.000000 375.994202
1135.500000 969.000000 88.536499
662.375000 315.062500 575.101257
812.000000 697.666687 559.091675
612.900024 195.100006 261.148407
755.000000 410.750000 242.217133
1283.500000 825.400024 354.855255
1148.517822 823.803589 557.818420
989.740723 675.666687 418.076385
770.804810 339.278870 235.295273
809.574036 696.314087 559.460205
1400.500000 963.500000 215.621857
606.000000 210.000000 554.668701
937.000000 367.000000 120.908386
1167.000000 945.000000 148.933533
1089.979614 771.673462 507.431000
1135.500000 969.000000 88.307739
793.083313 529.722229 222.726639
1301.000000 888.000000 623.987976
759.650024 368.450012 258.723358
936.000000 367.000000 120.908379
898.706665 607.426697 260.930298
538.000000 382.823517 114.442078
672.599976 281.133331 436.086182
1063.000000 747.320740 484.294006
977.000000 668.000000 398.185547
538.000000 384.000000 115.532104
993.202515 429.164551 176.560440
775.450012 547.549988 514.541260
734.000000 381.500000 515.776611
788.210510 495.515778 486.944794
865.000000 127.500000 480.773865
936.000000 367.333344 121.976006
661.000000 320.000000 576.654114
951.461548 680.626404 305.690674
1391.800049 960.227051 312.612610
751.500000 468.000000 246.735474
1021.000000 13.500000 566.565063
812.282043 706.615356 563.488281
1095.769287 601.153870 259.529358
778.666687 560.666687 515.319092
779.375000 564.187500 517.759399
657.727295 194.545456 416.945190
861.515320 548.269958 317.193726
1217.400024 743.799988 319.898193
1060.628540 748.657166 395.430420
628.000000 153.000000 342.135254
757.592590 371.777771 264.152130
659.000000 196.461533 418.185883
716.166321 201.691147 552.707764
873.677979 676.830505 174.157089
1135.500000 970.000000 88.536499
930.000000 971.000000 626.733276
775.000000 547.500000 515.776611
901.245056 380.139069 208.321457
762.440002 370.119995 247.732941
995.000000 855.500000 638.972839
1027.474976 528.349976 179.292145
1200.416626 801.583313 597.144836
1092.434204 609.421082 233.379135
777.937500 557.796875 516.459412
1135.500000 970.000000 88.307739
1215.008179 746.495911 353.405792
1225.666626 974.000000 89.947289
1030.300049 723.099976 387.799072
1324.894775 876.421082 365.470490
1255.599976 798.400024 460.778778
813.045471 422.863647 233.029678
765.000000 514.000000 203.267929
1348.250000 957.250000 206.470795
953.500000 683.500000 308.619507
863.782593 550.913025 319.441650
660.714294 318.000000 575.127808
1430.333374 970.833313 235.258514
1043.518555 861.518494 259.707947
1166.935303 775.870483 315.695129
1219.000000 750.500000 358.378418
1184.707520 817.037720 541.432007
796.880005 532.400024 224.342819
1115.527100 774.930237 471.996094
537.000000 383.000000 114.502625
561.970825 115.386864 304.518250
1357.733276 958.599976 174.861511
905.153870 383.923065 209.128128
1198.823486 926.470581 191.115860
859.307678 246.615387 536.648132
857.026672 543.960022 314.686676
957.166687 643.722229 391.118866
562.000000 116.000000 308.848267
1337.708496 923.970459 510.858826
943.500000 382.000000 671.192200
1220.275879 751.137939 360.800293
771.225830 336.225800 231.337326
1029.400024 721.900024 386.746704
814.000000 550.000000 230.263565
1094.395386 775.000000 511.520355
1222.363647 747.272705 444.564758
1014.000000 708.000000 96.658081
1373.785767 944.285706 297.474823
955.384644 684.000000 309.631409
1260.666626 801.444458 448.668884
919.631592 158.210526 569.015381
777.695679 556.782593 514.980896
688.879395 355.214020 579.662720
693.133362 316.600006 544.884644
866.285706 554.285706 318.489594
518.935486 962.354858 183.615280
660.111084 320.444458 575.195007
852.474854 539.078186 311.766144
481.254913 92.431374 162.615234
907.546082 387.302643 209.834717
735.741943 432.645172 263.450928
866.850586 554.528748 320.287109
878.086365 679.468201 178.366638
1269.500000 793.000000 351.743896
1101.925049 960.775024 285.741852
1048.452393 733.095215 471.448486
1218.000000 750.000000 359.064758
1399.300049 972.000000 96.909714
1027.666626 803.000000 286.008789
1058.136353 742.500000 480.243500
696.375000 321.000000 441.424286
595.714294 209.000000 553.557495
1370.681763 959.795471 199.269547
887.586975 350.597839 200.776245
1335.683350 921.700012 491.678864
1093.222168 599.500000 259.076691
904.000000 385.000000 209.444885
1326.000000 685.000000 44.954590
1332.676514 953.705872 163.238770
1063.199951 749.700012 399.123505
729.729492 362.009674 520.078674
825.803589 500.821442 561.785278
1302.500000 887.000000 601.796631
1002.000000 406.000000 87.049438
859.844849 379.241394 213.992813
780.925903 571.777771 519.759094
629.250000 153.000000 342.249664
1336.704956 922.377075 501.931946
909.666687 389.000000 212.075806
1336.111084 920.622192 481.358521
1368.807739 961.923096 521.953613
801.483887 536.387085 226.953674
995.272705 430.181824 180.577454
1030.333374 532.666687 181.991699
1399.555542 973.000000 96.950394
1022.000000 807.444458 264.046234
1144.652222 820.434753 554.693542
813.750000 422.000000 231.579025
736.250000 440.250000 261.491577
770.000000 359.000000 219.053528
1399.500000 972.000000 97.687561
736.970581 370.117645 307.085358
862.500000 370.500000 23.220795
652.173889 229.086960 356.776978
1179.599976 814.000000 537.007141
1503.000000 899.000000 115.303345
1352.561035 958.024414 172.843445
1503.000000 899.000000 115.532104
570.000000 99.500000 330.810822
603.077942 168.259735 521.839233
553.684204 968.596497 234.407623
1327.000000 685.000000 44.954590
1098.277832 966.518494 290.300446
590.000000 140.000000 416.030090
856.368408 126.105263 478.534241
1092.285767 655.142883 271.018463
931.071411 972.428589 626.210327
862.981140 276.075470 158.093201
1032.636353 536.000000 183.156387
1269.000000 791.750000 352.315826
1375.000000 964.000000 165.519806
1366.599976 928.400024 305.165009
1025.153809 719.894226 382.274567
1039.644287 831.307678 257.096405
1261.190430 786.714294 340.871552
807.176880 684.693848 557.688660
701.000000 332.500000 452.863098
490.000000 501.000000 92.997620
1090.068237 606.636353 231.038284
869.500000 130.000000 482.375305
1456.000000 896.500000 53.190521
891.400024 638.799988 218.321411
1315.933350 886.466675 466.757477
994.000000 431.500000 182.220490
1027.333374 743.476196 319.306671
1366.166626 926.333313 364.936676
880.559998 568.320007 327.786407
755.400024 408.483337 239.517578
997.500000 445.833344 276.400146
1222.000000 748.000000 321.545380
969.599976 622.320007 262.740692
1004.440002 146.000000 498.023590
1142.833374 818.250000 552.914734
1027.199951 743.799988 318.685669
1027.754395 496.514618 558.497009
955.266663 641.466675 389.583527
1417.000000 970.000000 140.125610
1333.333374 955.222229 163.931061
1030.000000 428.000000 81.330032
1060.500000 881.000000 645.492920
1370.833374 935.333313 304.310913
