884.000000 700.000000 114.845825
996.236842 111.842105 512.730323
702.670157 342.219895 481.346994
1409.166667 960.000000 189.791899
685.722222 476.888889 131.012682
1485.863636 871.727273 87.756579
1414.000000 961.333333 207.309652
685.000000 238.200000 563.362189
1215.450000 567.900000 44.382629
565.315789 963.263158 174.291575
1331.681818 637.181818 3.650005
1119.440000 903.914286 152.027867
1465.000000 887.533333 95.948865
539.363636 942.568182 181.014211
544.000000 950.000000 189.083786
677.600000 492.600000 125.653191
910.153846 121.192308 473.602597
952.615385 55.601399 529.146492
1165.769231 921.461538 124.577599
1358.666667 641.651515 9.022792
1038.605263 953.315789 56.287032
719.982143 343.535714 379.577008
1298.594203 947.202899 142.565889
977.211268 124.732394 523.099128
661.500000 453.000000 125.140747
1047.378378 476.162162 87.593569
979.525424 465.169492 97.480112
547.871560 955.715596 199.906592
899.212976 964.325811 53.006764
819.260870 584.888889 201.513421
717.513605 343.554422 400.428939
866.395349 708.046512 112.097822
1050.730769 871.153846 112.795611
908.629139 665.198675 251.660225
883.800000 698.800000 115.211841
1462.200000 911.500000 113.046092
672.029703 284.623762 458.813573
1408.875000 959.000000 189.655724
1028.764706 954.705882 54.744866
838.200000 656.545455 139.460076
1069.360465 950.906977 54.113616
1488.589744 867.247863 80.945813
889.916667 75.000000 459.459512
555.434783 966.130435 210.086463
993.000000 950.000000 85.219238
1375.000000 970.000000 594.590190
704.000000 350.333333 488.170965
813.631579 654.789474 125.670535
920.477612 460.507463 104.400619
972.296992 145.424812 543.288335
1479.700787 871.433071 62.968471
1288.878049 965.414634 110.275852
926.777778 128.234568 481.849951
591.100000 131.600000 333.441769
1385.400000 959.000000 184.279480
911.967836 121.195906 477.985723
882.666667 710.666667 121.365936
597.277397 135.414384 341.148093
1033.600000 870.200000 115.875299
792.448276 562.689655 185.888798
973.285714 82.428571 470.593301
1169.000000 920.448276 125.921736
1108.441176 878.176471 116.531347
1167.503623 704.586957 282.718868
597.328244 148.419847 409.557118
700.521053 302.142105 432.174495
797.000000 566.201923 187.917903
1061.263158 951.649123 54.452812
1009.016667 961.383333 48.248950
679.568627 201.052288 557.769864
1390.153846 960.000000 189.277362
830.870130 677.051948 113.193854
995.750000 468.250000 95.828754
880.187500 98.750000 455.250971
1074.000000 967.363636 54.656772
574.000000 190.000000 563.819702
572.719101 147.674157 546.924969
838.333333 670.000000 126.246501
604.000000 151.000000 394.410716
883.888889 698.666667 113.600247
939.709677 62.161290 458.759654
713.208633 352.374101 382.998224
639.354167 196.083333 558.974117
1024.000000 956.000000 55.935842
1279.784091 962.340909 111.593538
836.625000 588.000000 225.487839
1230.147059 938.823529 106.596385
1265.000000 889.000000 575.487320
938.880435 166.750000 533.910933
1100.895522 954.000000 49.837414
546.631579 952.789474 192.274613
724.000000 449.000000 125.369507
713.727273 354.196970 386.126231
715.271318 357.263566 387.384261
1445.400000 968.733333 207.134257
1169.400000 920.400000 101.782654
1010.328767 74.604697 547.343568
961.285714 87.489796 501.347401
981.018519 143.925926 498.593005
650.679487 244.007692 441.193169
878.833333 98.333333 454.807709
947.500000 58.135135 537.077614
1276.700000 897.550000 579.285023
1367.000000 957.363636 589.359514
1016.497664 54.231308 547.247329
686.916667 482.500000 130.326350
535.807692 937.461538 177.011421
555.125000 947.750000 163.632401
742.850000 387.275000 293.892030
718.000000 340.000000 374.850327
837.105263 671.894737 109.664211
1320.375000 630.000000 24.078712
1386.153846 960.000000 184.103499
1029.611765 954.698039 56.402816
1075.000000 967.285714 54.710257
1065.500000 951.000000 55.135132
1328.142857 905.714286 422.599254
1074.000000 967.000000 55.135132
572.947368 520.000000 105.670654
640.810526 201.736842 559.523554
1007.281192 82.985102 530.664819
635.185185 198.370370 357.742924
666.985714 504.342857 116.189047
1230.285714 940.000000 106.622914
705.125000 348.500000 488.895420
961.810176 103.857143 508.328889
932.500000 107.000000 515.319092
1019.264706 973.558824 45.842758
919.468208 460.867052 106.095430
891.227273 60.500000 454.620533
1318.333333 955.666667 125.843557
1167.900000 919.000000 101.965674
724.000000 449.000000 124.911987
947.768116 137.159420 497.393305
944.000000 439.000000 110.613434
1476.500000 880.000000 74.466751
726.651064 55.927660 58.156923
1048.500000 869.000000 113.129974
716.269841 336.158730 369.949784
1163.720000 700.900000 282.996550
567.112903 966.467742 177.600676
927.360000 686.520000 257.420854
606.750000 151.000000 394.296326
960.000000 90.000000 545.403198
594.000000 133.375000 347.625908
930.218954 131.846405 480.900952
870.259259 711.622222 111.734438
891.000000 688.000000 104.322083
755.375000 173.250000 595.419479
653.846154 250.846154 445.841437
1181.763889 588.152778 61.146866
584.000000 120.000000 341.220154
671.250000 497.583333 112.939329
1239.333333 942.000000 104.779663
968.941176 968.588235 92.270939
715.000000 354.733333 383.742104
738.757812 172.562500 596.856492
1069.500000 910.000000 89.565979
787.300000 636.220000 122.482360
1075.000000 967.000000 55.135132
1027.183562 21.095890 530.766540
977.600000 144.890909 494.363177
761.713376 195.636943 556.350982
1311.344348 954.869565 121.106717
1329.700000 950.666667 602.780375
1003.157407 81.851852 546.977117
1178.714286 923.428571 100.253122
715.000000 332.750000 364.726952
1060.727273 951.636364 55.135132
1123.090909 905.136364 159.207644
563.200000 967.400000 189.083780
710.572581 516.830645 135.930140
1172.250000 919.000000 126.970955
1121.358974 911.102564 155.744001
1464.000000 888.000000 94.827850
1189.318182 721.681818 264.247269
707.577381 514.589286 133.699437
808.714286 653.722689 122.108973
656.147059 257.220588 466.512330
945.000000 440.500000 110.155884
1179.428571 710.904762 290.083171
670.151515 278.212121 466.516919
802.111111 972.666667 53.143928
850.314607 261.123596 587.531519
574.000000 520.000000 104.779663
1059.250000 876.000000 119.821686
807.916667 968.333333 48.004924
965.571429 124.714286 505.252945
743.175000 597.450000 127.022430
1166.666667 548.500000 57.804181
926.200000 677.880000 263.051812
882.000000 680.000000 108.325668
717.366412 364.137405 391.627849
1140.460227 910.647727 160.241040
552.434109 965.953488 229.776741
966.368421 953.210526 82.233106
1328.000000 961.200000 107.113159
1019.684211 973.684211 44.767960
779.551724 615.110345 131.574098
598.329268 167.134146 557.732040
1015.183908 61.448276 546.896838
977.989170 133.658243 530.536329
652.666667 248.333333 445.313492
720.750000 348.750000 405.334793
723.313725 352.647059 406.141119
972.076336 107.282443 539.077815
1212.750000 565.750000 44.625710
1068.697674 908.953488 89.143022
689.644531 445.085938 126.629576
528.541284 931.807339 163.497541
1484.000000 859.000000 47.471115
1253.062500 941.500000 115.489227
970.718750 956.437500 59.724959
1226.509091 577.036364 42.342361
1412.000000 957.500000 206.699585
915.500000 56.750000 464.702293
673.464789 552.478873 115.664240
607.194872 162.851282 402.135150
585.000000 119.000000 341.487081
961.636364 637.515152 90.321646
1353.777778 942.888889 525.296305
709.560976 506.975610 130.070601
939.029210 163.396907 538.438511
1013.026178 65.219895 547.416095
1327.395833 947.208333 600.366786
988.172414 106.724138 497.742761
679.675000 475.412500 128.566670
680.900000 200.700000 554.394153
823.000000 972.000000 65.544464
885.055556 604.666667 457.972461
1283.500000 961.000000 104.779663
877.648855 717.061069 112.137153
1166.458333 694.458333 294.397247
790.000000 630.000000 129.144348
575.000000 519.000000 104.779663
549.763636 961.627273 220.715257
1040.107143 872.107143 118.669637
715.000000 519.000000 136.236404
1377.538462 959.000000 181.305376
1080.000000 860.000000 112.214874
691.791667 311.791667 431.072156
632.205674 194.085106 559.114399
845.666667 658.833333 142.184601
655.555556 253.444444 444.279765
1210.125000 590.000000 51.589092
1276.666667 959.000000 107.753730
748.320000 613.880000 119.627231
675.363636 500.787879 109.951366
973.000000 61.333333 460.870300
827.727273 678.818182 115.261752
1339.312500 967.218750 595.376587
824.000000 510.000000 295.121704
853.142857 258.642857 587.236638
897.500000 121.250000 459.268862
825.000000 509.000000 294.892944
890.604380 152.559124 548.135846
824.000000 510.000000 294.664144
775.235294 214.764706 508.913369
958.668605 135.959302 489.964819
925.857143 686.857143 254.089002
823.148936 507.595745 295.817771
736.500000 191.300000 595.345129
843.076923 603.242604 219.005451
802.500000 969.000000 60.053823
958.405405 953.000000 58.322536
1462.000000 887.342593 100.011337
825.266667 508.866667 296.052063
1019.211991 44.391863 547.213836
775.142857 220.000000 488.552257
713.923077 340.307692 398.678278
1399.000000 959.000000 189.820953
1050.063158 875.852632 122.698855
600.000000 168.000000 554.668701
1309.109091 924.890909 591.023342
690.638889 458.388889 128.152971
1468.606426 912.991968 118.655069
1082.909091 860.818182 115.625716
1326.500000 956.916667 592.111786
773.647059 224.235294 512.789109
677.531250 507.000000 123.281931
943.200000 703.200000 265.266357
850.333333 696.500000 115.074585
715.500000 39.000000 52.275421
735.000000 368.600000 413.193268
628.250000 192.000000 344.880615
523.537037 944.675926 171.923426
1059.591549 909.000000 92.438586
1013.365854 66.243902 543.896652
955.000000 56.075000 527.129701
825.333333 510.666667 294.892944
1089.227273 880.477273 116.832001
1035.500000 869.000000 117.247955
737.250000 510.250000 153.852197
751.616667 182.983333 584.157975
683.500000 290.000000 434.789780
679.763496 464.110540 129.796259
946.380952 961.190476 71.231191
1356.150000 637.366667 2.691918
785.187500 617.093750 132.225670
609.666667 175.000000 554.516174
1071.000000 852.241379 115.358563
998.712644 963.919540 63.918040
947.390805 61.160920 543.567757
1110.014085 880.154930 116.473016
1352.275862 941.747126 522.849014
1398.022727 960.000000 189.988491
1055.333333 466.833333 84.380397
940.141176 443.988235 109.260960
919.345455 125.377622 479.324243
598.166667 150.166667 413.094131
943.428571 45.428571 463.027337
815.000000 669.000000 116.790405
708.559486 326.598071 359.769829
1291.755556 950.355556 120.633846
1232.625000 939.000000 104.407875
945.400000 133.200000 484.480035
682.599099 233.837838 562.573828
715.083333 338.833333 397.994882
703.020000 344.580000 486.447512
960.820000 972.420000 81.467303
1339.433735 964.807229 120.215160
984.000000 970.000000 84.304138
982.500000 101.700000 498.160873
1070.200000 851.763636 112.936559
1069.782609 904.543478 97.354342
996.154639 68.051546 493.098304
1210.869565 564.478261 45.824909
1111.837838 900.635135 148.611983
713.520000 361.080000 484.237534
1288.666667 966.333333 115.074585
678.403361 566.789916 107.790256
889.373333 693.586667 110.090297
587.424528 122.924528 342.722328
1489.403509 858.030702 47.905586
770.252252 612.450450 129.490590
1339.040000 952.000000 599.929816
726.017182 53.089347 52.069836
929.000000 128.000000 495.186783
1078.312500 857.343750 115.467773
982.683168 45.069307 548.302569
1289.875000 897.875000 575.258545
724.000000 70.666667 83.744907
687.985075 463.442786 130.878368
999.210526 962.929825 50.605754
985.000000 44.000000 548.720459
658.650943 436.273585 126.401169
1334.000000 960.250000 610.661728
1102.538462 914.538462 96.728457
1372.500000 970.000000 599.966431
1055.416667 466.750000 85.905566
911.325581 40.534884 458.171532
746.636364 191.363636 586.614186
893.500000 670.000000 101.462372
909.311558 964.115578 53.086869
897.395062 72.469136 461.476131
862.571429 100.571429 467.995054
675.400000 498.800000 110.476172
1023.375000 971.125000 64.800934
1327.666667 647.000000 46.327230
1357.109375 946.796875 527.422817
931.076923 61.153846 460.412750
979.566667 34.416667 558.939162
1013.297297 5.324324 523.650912
849.897959 260.857143 583.139680
571.610169 171.762712 563.610345
783.800000 614.600000 135.344177
1263.000000 887.285714 575.258545
962.300000 968.400000 94.370300
975.000000 139.000000 547.576599
756.333333 173.222222 594.335978
691.057554 305.586331 409.244158
1091.000000 913.000000 111.757324
853.200000 661.800000 145.456104
910.750000 969.000000 84.075359
913.000000 971.083333 81.482557
983.888889 37.555556 548.415446
1331.112069 954.836207 607.652135
1234.000000 940.000000 104.550863
1399.253968 960.460317 197.506754
842.720000 220.240000 656.053273
541.891089 947.079208 189.725944
1088.157895 970.184211 42.281502
604.000000 140.250000 341.220169
912.326923 672.730769 251.011829
850.257576 696.545455 112.447115
863.000000 672.000000 134.634949
653.714286 250.619048 443.897260
1001.120690 116.017241 495.888885
975.606061 140.636364 533.056215
676.830303 511.090909 121.782581
884.000000 604.148148 459.806911
1336.655914 962.440860 612.808659
999.055556 950.333333 85.930983
631.367089 195.282700 357.196401
837.755319 233.904255 550.920634
997.142857 471.714286 95.416138
733.186813 176.978022 591.553230
581.351351 192.324324 566.565050
819.746835 574.240506 213.212466
887.488000 364.136000 206.175217
696.255814 316.488372 561.063771
779.153846 621.179487 128.229229
724.000000 68.600000 80.186157
1308.606061 948.515152 148.933504
1010.229730 84.891892 473.657046
713.470588 361.382353 486.466352
959.292857 953.678571 81.650322
687.947368 301.750000 418.847661
692.801724 310.508621 406.989479
735.555556 370.222222 414.149046
565.500000 969.000000 187.024790
524.000000 938.250000 166.492096
560.210526 954.473684 160.866002
1006.357143 966.071429 64.792764
992.966102 946.762712 85.372401
646.597222 200.625000 559.523818
759.034286 607.720000 127.458577
1012.060606 75.924242 474.621157
842.000000 597.000000 225.116089
936.456140 697.438596 259.856002
1064.000000 850.000000 112.214874
1276.877551 887.551020 571.364688
859.904000 243.304000 678.326960
723.637931 72.741379 88.315614
968.985207 63.899408 540.481822
639.400000 191.440000 551.959958
1101.925373 933.074627 119.923274
949.392453 133.305660 487.796431
827.500000 680.000000 115.417725
1478.446154 907.123077 116.677778
887.203125 363.828125 204.111545
1162.384615 690.769231 293.001122
951.171429 433.464286 119.738350
819.500000 504.664835 292.935756
1039.640964 476.840964 88.330325
576.052632 519.000000 106.296785
714.000000 520.000000 136.236404
964.000000 62.500000 540.484497
717.796117 521.417476 137.519106
912.088571 175.982857 530.722308
1168.816514 724.733945 287.444043
1005.000000 950.000000 86.591919
676.000000 199.000000 556.956421
771.846154 620.230769 126.574996
889.522785 964.284810 53.012718
669.333333 200.303922 558.387413
576.000000 520.000000 104.779663
931.478261 692.608696 257.821180
765.245283 505.603774 483.186800
821.666667 675.333333 114.845825
881.466667 360.600000 204.289799
1181.363636 915.727273 144.617950
878.204545 362.147727 206.616385
1078.250000 950.312500 53.862560
1077.775510 856.122449 113.146316
1355.521739 944.304348 524.067327
1159.068182 542.772727 59.533875
1286.862745 948.627451 120.944265
1322.500000 952.375000 591.673275
768.755102 450.790816 126.297462
975.000000 143.701493 547.370012
1456.600000 887.380000 107.534104
845.000000 599.000000 223.629028
989.271186 85.728814 471.262178
724.000000 50.000000 49.758877
913.800000 176.400000 535.245532
569.701538 211.784615 162.912101
1105.000000 914.666667 95.971741
1310.186441 953.163842 127.285037
643.800000 213.200000 354.008780
1278.000000 959.000000 104.779663
1015.376471 62.329412 544.245893
733.481481 367.407407 415.559836
819.646154 673.876923 115.796100
1109.572368 942.986842 121.879173
725.000000 70.000000 83.122131
1186.132075 717.528302 262.916014
1004.000000 965.000000 65.201294
759.568807 614.000000 122.462589
846.650000 605.600000 220.847114
642.742857 212.171429 356.613566
829.480519 513.939394 298.589994
1289.018519 946.833333 129.690855
1453.037500 934.837500 179.583837
963.428571 640.285714 94.566393
1097.000000 967.075000 42.855549
734.000000 370.000000 416.030106
1251.666667 950.777778 111.757324
559.500000 969.000000 216.994522
546.585366 956.520325 210.948681
1007.343750 81.611607 547.462720
971.400000 948.800000 68.381281
1078.600000 917.875000 112.489399
839.177966 602.118644 213.477564
990.160494 961.567901 62.597195
763.736842 611.473684 127.645248
787.282051 557.794872 183.094533
544.000000 954.428571 206.617868
597.883978 136.201657 350.229037
1378.500000 960.000000 196.862185
1118.375796 912.356688 153.587720
723.666667 190.777778 585.883952
702.560847 54.798942 79.060429
1173.142857 730.964286 282.939357
805.000000 569.000000 195.489532
959.428571 46.057143 485.486649
1059.016129 873.451613 113.834750
1291.379747 924.987342 583.921666
1289.500000 963.750000 104.779663
602.435897 170.692308 558.129650
895.714286 63.071429 465.478511
698.988506 335.376437 478.843058
1333.333333 911.000000 424.266052
719.201835 61.807339 69.258403
997.918367 468.551020 94.181211
1299.607362 952.858896 120.413631
989.270588 44.282353 560.421728
948.358824 951.441176 60.108996
1066.000000 848.666667 115.074585
551.145631 943.747573 160.627760
800.132353 626.536765 138.689024
765.333333 609.000000 128.534261
1345.000000 649.000000 36.032288
1066.166667 875.666667 114.845825
1182.142857 920.428571 112.214874
1020.431925 44.380282 544.037016
1029.633663 972.732673 63.907914
1083.625000 920.375000 115.246155
849.871287 257.534653 583.174002
737.000000 527.928571 145.730626
923.857143 130.000000 479.433877
790.405063 616.816456 138.968691
674.000000 200.000000 554.668701
1106.318182 954.227273 43.311539
1082.500000 920.055556 114.375536
712.315152 331.115152 361.023208
725.000000 49.000000 49.804633
713.081250 337.612500 397.041646
778.859649 637.052632 119.030003
1058.588235 901.705882 98.071101
1017.135514 6.602804 522.146061
857.555556 267.555556 582.782759
1010.567164 967.388060 65.972990
1066.857143 848.357143 113.268877
800.500000 630.000000 135.550079
1096.615385 928.384615 118.515024
646.727941 236.033088 437.601536
978.097561 958.195122 60.801534
633.642857 210.607143 561.482947
688.000000 468.827586 135.719687
960.693878 634.551020 97.731916
703.142857 512.142857 135.304958
1325.000000 969.000000 624.788696
771.559322 212.059322 528.479578
721.750000 453.500000 124.826187
785.000000 351.666667 203.649231
1085.000000 920.500000 114.845825
1106.600000 937.685714 121.441103
1297.875000 967.687500 106.581249
701.888889 303.666667 435.552363
1159.751412 693.819209 280.284835
767.677966 494.457627 478.784661
983.000000 960.000000 61.557212
648.107692 208.394872 349.656160
739.080460 514.229885 158.929985
600.206897 166.689655 536.678157
1106.814815 897.425926 146.480506
1163.071429 917.285714 102.344792
1325.500000 970.000000 624.788696
674.000000 463.000000 129.373108
976.629032 63.758065 544.189240
1017.404762 54.314286 544.031661
668.188679 198.886792 557.232688
763.621212 501.909091 481.356194
676.993631 482.229299 126.624145
1168.992754 696.007246 297.003307
985.607143 33.714286 548.589741
559.066667 965.933333 196.358879
918.976898 953.016502 59.994551
968.320442 736.381215 268.932479
842.833333 691.500000 115.074585
879.000000 111.500000 452.405563
966.000000 640.000000 94.827850
675.000000 550.000000 116.561630
730.843137 524.901961 142.648876
1320.574074 900.314815 421.681725
1099.904762 945.333333 118.936542
876.000000 108.000000 451.719238
588.818182 125.636364 345.910090
1311.096774 954.516129 105.591419
676.952381 484.476190 124.062236
1308.409091 935.909091 588.693977
948.646154 973.707692 80.511722
1118.750000 942.000000 118.620621
866.862500 627.150000 229.738802
731.400000 516.425000 139.988343
855.153846 258.692308 590.243413
982.333333 70.000000 460.412750
1018.425000 864.900000 109.932823
524.000000 937.500000 164.947876
1451.909091 942.479339 182.501257
1183.555556 577.888889 60.002984
733.692308 510.230769 157.213452
1222.428571 590.428571 47.634526
1260.625000 953.171875 109.687609
958.631148 966.360656 52.871750
1131.288660 663.721649 270.845449
693.109091 310.454545 403.911181
900.538462 672.813187 102.779723
927.487805 146.146341 525.923739
791.088235 335.058824 178.775381
735.000000 509.000000 155.911194
888.552632 668.605263 100.739922
753.333333 179.000000 583.952077
687.200000 267.400000 569.493384
883.133333 358.666667 205.845475
757.166667 545.166667 161.401830
903.185185 661.629630 247.981029
802.000000 550.000000 184.737030
583.000000 126.000000 326.120911
979.604167 64.666667 460.727316
1255.400000 949.000000 105.900635
966.812500 638.875000 96.028931
650.333333 198.166667 558.859440
1003.750000 10.250000 540.370117
1376.333333 972.000000 595.276489
609.678457 175.160772 558.102156
947.442308 142.038462 498.116875
1113.000000 880.166667 114.578898
875.000000 700.000000 125.483887
973.399254 146.376866 547.079775
1296.000000 928.666667 584.562149
598.142857 150.142857 415.834004
975.900000 27.600000 558.420605
1281.333333 891.000000 572.271761
1016.000000 969.000000 66.612081
797.000000 225.185185 561.807350
799.780583 972.601942 58.736913
796.545455 568.090909 184.196286
842.750000 692.083333 113.301575
1020.321839 970.551724 66.592360
623.723077 191.276923 349.357577
1159.370370 924.222222 122.857214
702.276923 511.666667 132.592990
1168.475000 533.675000 55.598395
941.368098 703.441718 262.532277
739.653846 534.102564 148.992166
682.000000 290.250000 436.067108
608.400000 165.000000 405.369110
675.000000 289.000000 460.412745
1104.000000 896.500000 145.730626
1322.486486 942.108108 599.001852
882.205882 721.132353 112.574854
585.666667 128.333333 327.951141
725.228571 67.571429 78.395161
1245.888889 918.333333 603.321815
1288.642857 895.828571 573.990488
860.631579 664.968421 148.711951
1327.750000 969.000000 601.224701
1319.933333 642.200000 44.069963
765.500000 508.125000 485.864131
711.245614 333.491228 392.708937
1200.476190 921.952381 147.119629
1325.928571 968.857143 626.455470
1270.740741 905.148148 576.932018
769.396694 450.512397 123.610209
1289.320988 945.851852 137.017352
941.160000 972.800000 78.781467
888.240000 58.400000 454.176296
743.950000 390.650000 295.853790
718.454545 368.500000 395.679388
1177.740741 928.925926 91.980855
989.500000 965.382353 89.202643
548.484848 958.757576 216.478038
989.295775 43.788732 478.205755
973.190476 741.000000 269.297186
688.737740 203.183369 557.482036
625.000000 188.666667 347.422551
1361.821429 952.598214 532.156654
961.159091 123.340909 506.105654
962.300000 971.600000 94.370300
1170.483333 534.883333 54.300094
886.666667 58.666667 455.036499
1269.655172 957.198276 110.820517
891.000000 62.000000 466.687757
734.000000 176.000000 595.047729
1496.071429 867.500000 65.511780
949.257143 47.400000 462.556708
710.311475 32.319672 51.725982
786.562500 345.000000 192.887196
571.862745 211.738562 166.304071
844.000000 251.166667 104.398346
783.600000 351.400000 201.483472
735.166667 368.833333 416.030101
745.000000 390.944444 295.782617
602.125000 157.000000 335.915419
802.000000 549.000000 185.194580
960.273859 723.829876 272.098813
840.136364 218.750000 656.177854
965.600000 640.200000 96.566557
723.200000 190.200000 584.318115
738.000000 110.000000 114.845825
790.500000 563.300000 182.266241
701.000000 30.375000 64.600754
939.000000 968.600000 75.336096
735.800000 526.400000 143.969055
1239.657143 913.828571 600.920748
919.545455 973.454545 78.480738
743.640351 391.903509 292.819891
1330.571429 962.000000 104.354762
558.333333 970.333333 214.439850
599.085227 143.664773 349.259846
1341.298246 966.666667 617.847117
1170.630137 928.328767 88.979949
941.500000 966.045455 73.489245
674.000000 290.166667 461.022812
1142.014706 670.602941 277.263676
1455.000000 932.571429 179.050302
1328.434783 971.086957 626.718352
1249.640000 921.360000 604.317749
910.833333 56.916667 466.494387
1319.087432 897.863388 419.025445
672.872727 283.181818 467.691997
1297.000000 930.000000 584.867188
1270.938776 883.244898 569.973354
678.283951 265.543210 568.959673
841.294118 220.529412 654.092263
955.269231 438.000000 122.720992
948.902371 64.559275 549.754124
722.156000 45.704000 48.229734
712.352941 54.470588 85.663333
802.166667 968.666667 47.547373
1156.000000 688.115385 279.688089
1320.027778 632.157407 28.957162
840.000000 689.000000 114.845825
840.000000 689.000000 115.074585
931.882353 682.117647 266.737712
1015.500000 788.000000 284.597982
779.041379 225.868966 511.377052
959.684211 52.026316 461.773360
955.653846 717.179487 269.759771
1453.085714 938.171429 186.188122
923.000000 128.500000 494.424184
637.958333 215.885417 562.323153
1272.333333 960.500000 111.833583
1293.000000 900.000000 573.657104
1325.000000 619.000000 7.435242
716.864865 64.567568 90.202858
813.600000 670.000000 115.783783
1328.500000 970.000000 600.881531
543.405941 951.366337 199.708299
1215.000000 934.500000 98.030731
1138.742857 668.714286 276.652899
1189.285714 592.178571 66.533098
751.916667 542.000000 158.580241
1369.348837 965.953488 603.805074
883.448276 358.344828 203.875371
588.857143 158.571429 535.402396
763.000000 550.000000 164.947876
952.200000 954.509091 80.868322
1280.062500 916.645833 581.835889
1372.000000 960.000000 179.703949
958.500000 764.500000 105.008423
744.000000 520.000000 161.401825
881.583333 74.000000 457.133612
980.670213 54.308511 547.878389
1377.500000 959.000000 198.006073
560.435897 971.914530 220.124065
1190.215385 914.676923 134.189731
906.400000 968.866667 86.073340
812.400000 668.200000 115.783777
593.000000 145.000000 414.657440
579.398058 520.194175 106.345531
1045.250000 458.000000 87.301108
930.000000 47.000000 475.168823
1025.500000 869.000000 103.292587
1159.758621 926.149425 88.299837
763.000000 550.000000 165.176636
1017.000000 790.000000 284.826782
958.875000 764.750000 104.407875
1483.176471 875.529412 93.374449
1154.000000 540.000000 60.511377
1105.000000 897.000000 144.701141
747.000000 539.000000 155.339233
1157.224806 684.790698 288.290328
529.588235 926.660131 160.390274
954.000000 432.000000 111.757324
969.898551 967.391304 52.383188
978.142857 63.952381 546.225723
1177.705202 590.358382 62.779966
787.555556 646.934343 116.925590
738.083333 448.333333 143.671641
1169.914286 552.685714 57.739906
773.078261 215.052174 512.963709
667.000000 199.000000 554.439911
580.110092 113.100917 338.386704
663.272727 507.409091 116.873593
658.839286 198.580357 558.463906
975.000000 971.000000 94.370300
885.000000 358.000000 205.326904
1316.750000 946.950000 590.140469
879.049020 674.803922 111.604798
529.743902 513.365854 99.676799
657.916667 453.500000 124.206572
692.633333 308.966667 402.524657
1300.232558 933.069767 586.152050
1309.865772 621.463087 17.525957
968.264706 971.647059 94.370300
1042.238095 480.000000 88.269594
1173.500000 700.900000 300.063275
1261.333333 951.666667 104.779663
1007.214286 777.904762 282.413715
972.173333 23.626667 557.157759
912.097561 972.926829 73.057815
1028.463918 971.917526 66.371120
1362.250000 647.196429 17.681143
1366.733333 956.480000 580.634810
578.090909 110.545455 334.492060
715.000000 362.800000 484.113992
737.692308 450.000000 144.129197
1009.803987 944.305648 86.992834
975.000000 738.000000 273.959869
1179.416667 925.805556 140.862777
1195.200000 916.400000 134.657861
1300.558824 904.882353 576.799436
1475.285714 870.000000 49.268642
861.753012 622.795181 227.040013
968.571429 56.457143 461.393215
681.823529 561.617647 104.019291
897.200000 669.000000 101.370862
1261.083333 894.333333 574.000295
725.875000 507.375000 139.038918
793.750000 550.250000 200.637009
933.285714 973.571429 77.636928
625.757576 197.469697 418.033626
1490.309859 854.417840 40.997168
869.500000 104.000000 450.804123
1089.073171 922.621951 116.402598
868.814815 114.740741 469.750213
1258.388889 927.333333 607.876162
695.156863 296.294118 573.356575
592.588235 161.058824 535.458159
1180.361702 915.297872 146.509442
1142.068966 672.068966 271.687886
615.333333 530.000000 111.604797
595.941176 148.470588 416.830816
1006.125000 116.416667 495.396493
831.571429 580.000000 225.540946
817.800000 648.320000 129.528679
785.166667 347.583333 196.976575
1175.857143 538.857143 53.321254
745.680000 594.720000 128.833199
950.266332 457.381910 103.170149
998.791667 88.625000 472.251931
636.000000 189.000000 550.093140
801.435028 571.457627 188.973271
1178.000000 552.000000 55.135132
795.625000 619.000000 141.841431
1015.000000 82.400000 474.413867
1364.000000 961.000000 603.855606
1025.666667 870.000000 103.216329
1110.619048 915.095238 93.999901
969.285235 152.583893 543.844020
750.538462 380.871795 282.404075
725.408451 77.788732 89.506383
1016.666667 943.222222 55.465563
629.883019 207.196226 560.003913
564.000000 970.000000 194.116867
1323.341463 648.170732 51.937838
1363.142857 953.428571 591.403652
615.700000 178.650000 558.260452
907.000000 97.000000 464.073166
1347.595092 935.460123 518.849706
709.517241 351.988506 472.462957
979.823529 948.529412 83.765844
793.600000 326.100000 164.581812
1081.500000 880.272727 116.665619
1119.046729 913.878505 83.265019
1188.300000 927.400000 99.632156
798.083333 552.694444 202.871805
1335.000000 656.111111 16.535443
890.000000 103.554217 486.267247
1323.100000 968.100000 625.131836
1070.571429 877.214286 115.499442
1013.000000 71.808511 475.436543
1179.550000 742.050000 616.895891
1311.373333 942.253333 588.516922
1371.000000 959.000000 179.551427
813.272727 580.409091 197.610906
844.000000 251.750000 105.179993
791.080460 443.287356 242.424214
598.772727 144.818182 328.013530
1015.300000 76.900000 474.871429
896.754098 332.918033 113.263115
1253.114286 923.828571 605.852520
567.469388 208.173469 162.709119
689.615385 201.692308 554.439911
950.021858 966.273224 51.784739
670.256000 255.288000 569.449464
947.023810 708.119048 266.333989
691.500000 330.000000 574.801025
961.648649 734.081081 272.720155
999.379310 471.666667 93.948250
651.000000 193.500000 552.838455
1015.300000 75.500000 475.237457
719.776119 453.917910 126.697789
522.750000 948.750000 175.585968
570.000000 209.000000 165.519806
662.809524 243.785714 450.174086
661.290323 200.000000 558.904732
795.500000 649.000000 116.790405
1339.392157 960.490196 127.491310
1140.023256 921.197674 89.174948
906.300000 656.300000 262.177887
650.129187 251.789474 469.286318
625.000000 196.000000 414.199890
815.500000 221.500000 574.801025
1149.170732 912.945122 162.749371
1446.117647 963.458824 189.071672
970.750000 637.214286 93.929089
673.339286 261.089286 567.888688
1258.702128 884.063830 573.097353
1319.761905 958.309524 90.884177
745.500000 537.687500 148.518845
577.509804 216.065359 164.025276
999.542587 945.747634 86.031503
1035.875000 974.000000 63.142305
1447.440000 896.160000 102.551348
932.000000 110.000000 512.573792
674.000000 547.333333 114.845825
648.691489 211.803191 350.461284
1007.000000 950.166667 52.504196
606.000000 169.000000 539.569458
790.385965 223.274854 560.935944
1453.785714 930.428571 174.229653
687.833333 299.000000 416.335136
1153.209302 684.697674 278.117752
1300.500000 958.500000 73.322876
1455.076923 936.230769 185.968900
911.473684 57.982456 463.645717
845.000000 252.000000 106.266663
719.666667 370.466667 394.532725
1326.095238 641.047619 2.837904
1138.204348 664.704348 270.790821
975.000000 59.000000 461.327850
745.272727 438.181818 503.984276
1103.040000 910.160000 79.490676
1179.620690 930.241379 89.668542
1293.000000 970.333333 112.214874
859.411765 620.411765 224.631621
800.095238 632.809524 130.625934
851.202073 612.911917 220.705323
947.800000 61.300000 526.002979
1019.625000 860.750000 104.522263
731.571429 528.571429 145.354784
1099.375000 895.208333 143.480994
1337.888889 651.422222 42.361771
818.835165 957.230769 57.016877
792.625000 330.583333 172.535617
795.000000 440.000000 241.244827
725.812500 62.812500 69.977003
627.808290 187.409326 558.731523
973.571429 31.000000 557.806183
1151.666667 536.333333 60.206350
592.244898 160.959184 533.880356
872.557377 364.737705 207.854710
1153.894737 681.368421 285.790029
1448.368421 971.894737 200.221587
748.000000 165.000000 604.885132
542.333333 948.916667 196.175858
1228.333333 591.000000 45.593236
731.546667 507.346667 155.970667
1201.750000 935.125000 86.191544
588.634146 158.487805 533.428726
598.731579 155.489474 331.264781
1316.903661 895.489403 411.523993
814.000000 500.333333 291.194377
881.735849 722.707547 116.991121
762.614100 495.710575 479.213377
1182.250000 927.750000 145.387466
1261.913043 930.173913 608.754434
959.444444 71.444444 455.735536
1010.472727 53.909091 563.087648
1441.200000 887.185714 116.218461
1360.967213 640.393443 3.034083
975.000000 59.000000 543.229858
1196.960000 725.600000 321.911434
871.636771 633.017937 231.510543
674.000000 483.000000 125.941467
1003.086957 6.173913 539.944409
1148.044444 674.093333 279.740802
1284.000000 947.000000 126.170242
599.709924 183.412214 561.937129
1323.153846 960.000000 90.815465
1464.000000 959.000000 161.211182
909.712919 37.110048 460.632946
1232.285714 581.428571 40.989112
860.233333 98.000000 468.877473
1334.000000 656.421053 16.682609
951.829897 714.587629 267.900832
994.000000 90.000000 471.851578
703.000000 320.000000 375.193481
955.333333 49.000000 461.937917
1179.108108 924.648649 172.120315
1101.071429 909.000000 78.764473
609.528090 142.629213 342.022176
701.000000 320.000000 398.597327
1131.295455 666.886364 276.039658
766.464286 538.321429 172.366757
815.000000 498.500000 292.033218
765.750000 510.250000 484.434280
1078.333333 878.833333 116.536211
943.117647 690.705882 273.636896
1493.300000 866.000000 85.539523
841.000000 244.181818 103.178195
960.733333 726.400000 263.031986
971.000000 59.000000 542.131726
1270.434783 915.478261 584.170900
676.980315 294.350394 462.222240
810.824242 612.448485 171.217723
1003.750000 950.250000 52.847359
938.286765 686.242647 270.543365
858.086538 262.644231 593.514489
866.521127 674.661972 136.724567
1009.325581 940.395349 70.375368
901.594595 653.162162 257.487963
965.500000 732.333333 264.122482
814.000000 220.000000 574.801025
1364.000000 955.250000 535.279846
795.000000 549.000000 201.666504
1465.307692 958.846154 160.724300
1109.000000 939.000000 125.140747
1181.113636 714.431818 262.063493
720.715385 374.550000 398.478539
1010.500000 69.000000 474.940063
856.186916 616.869159 223.724184
839.555556 957.277778 60.435120
703.400000 319.000000 374.095359
1320.456140 966.947368 67.302425
1145.882353 675.235294 272.048921
1321.000000 638.500000 37.404938
1002.312500 772.562500 280.765982
1115.000000 882.000000 114.845825
946.083333 164.472222 534.212236
930.200000 146.933333 524.584574
1036.082192 524.908023 642.989621
1007.458333 91.416667 472.804807
1200.196078 917.921569 135.924642
942.151515 950.151515 60.026090
1010.423729 781.593220 283.888389
1106.230769 941.128205 126.067578
1053.000000 883.600000 110.476172
901.555556 115.000000 489.594459
1218.968750 940.406250 106.910121
1305.666667 908.666667 578.003878
1150.638889 902.291667 121.782175
943.000000 58.727273 539.715009
696.428571 330.785714 474.482503
1164.000000 530.000000 55.135132
1196.285714 930.285714 98.945831
1279.794393 946.457944 121.327446
1451.000000 900.000000 105.351562
1000.536585 90.902439 472.175211
692.875000 444.000000 124.511612
889.000000 82.600000 458.674042
999.577586 963.206897 91.814311
904.000000 969.000000 86.820679
862.842105 262.122807 99.272940
1261.833333 924.333333 592.416824
1197.357143 926.428571 112.476331
905.000000 970.000000 86.820679
1091.208955 757.641791 448.149297
762.285714 494.500000 485.643523
745.666667 436.666667 506.259559
971.177778 36.177778 479.162252
1452.047619 941.571429 189.813687
1164.000000 530.000000 54.906372
1185.000000 918.500000 113.129974
780.548638 643.284047 116.768593
759.000000 180.000000 587.459981
1318.870370 933.861111 593.656009
898.565789 655.802632 247.451898
798.982456 651.701754 117.665373
1053.000000 910.000000 94.827850
1453.200000 893.066667 121.709090
782.500000 348.166667 196.480891
739.472868 613.031008 117.541462
1100.500000 921.000000 112.214874
947.562500 968.187500 94.370300
1297.880952 954.571429 79.151214
623.000000 181.666667 548.567952
895.285714 697.142857 107.508615
736.647059 106.691176 116.312665
1351.500000 912.250000 365.527679
562.500000 210.227273 161.381027
813.428571 220.285714 575.372934
720.800000 73.000000 96.017493
1454.000000 929.000000 176.729843
1242.425926 932.037037 608.634518
970.714286 77.714286 455.461365
522.500000 950.000000 174.556478
1136.545455 917.181818 88.609293
1339.153846 958.769231 128.334819
1066.500000 930.000000 63.256714
785.363636 643.227273 113.785106
867.846154 91.923077 453.091891
795.285714 324.285714 164.130807
814.000000 623.300000 167.281378
1125.900000 915.600000 84.578668
1171.326923 743.230769 617.362244
744.000000 440.454545 502.382836
963.777778 730.444444 263.944546
776.076923 325.269231 156.588715
1180.435484 542.274194 52.489437
889.120773 726.299517 112.381202
608.432432 533.031532 109.382988
1009.633333 973.977778 46.060321
898.657895 85.421053 463.073775
1448.527778 884.277778 113.701914
1217.000000 935.066667 112.146240
1151.181818 902.318182 113.847506
745.643902 374.068293 298.811142
1359.000000 919.000000 365.928040
568.170732 173.646341 566.659910
1048.000000 483.000000 84.304138
1095.666667 763.222222 444.195033
857.680000 618.040000 225.454673
733.000000 531.000000 146.645752
818.142857 618.857143 175.389875
1320.133333 936.950000 596.012399
1310.823529 963.764706 69.339454
1287.437500 610.250000 25.594351
876.100000 636.822222 233.751127
888.000000 600.000000 465.445831
685.919355 214.387097 559.144572
863.179104 254.253731 680.627226
979.393939 946.212121 68.816652
607.872483 524.322148 110.119801
802.771429 547.571429 183.272862
629.120907 204.410579 421.243263
678.500000 295.676471 468.884205
1092.000000 760.500000 441.195511
827.333333 662.333333 107.944377
1120.924051 916.632911 91.261549
699.940299 506.298507 131.835016
882.326667 641.320000 238.467487
1033.435714 522.407143 642.742732
888.000000 599.000000 465.445831
699.857143 318.190476 399.906799
1288.550898 611.053892 23.550267
1310.778947 952.063158 101.593619
1102.833333 605.666667 75.381851
735.410256 103.743590 113.608060
1346.931034 935.137931 531.960630
1103.100000 605.400000 74.420990
910.684211 658.578947 266.398208
885.000000 724.062500 115.832397
896.000000 84.000000 465.102661
816.222222 617.126984 173.499745
1461.986842 916.842105 120.754857
949.833333 773.666667 111.719193
1095.428571 970.000000 42.078526
895.200000 728.800000 113.129974
684.000000 301.500000 417.860306
945.882353 691.176471 274.444345
743.032967 435.379121 502.549105
948.270270 971.918919 94.370300
1148.000000 908.900000 151.709327
793.703704 327.759259 168.879425
738.500000 449.000000 145.730626
990.550607 103.259109 539.214216
745.400000 519.000000 162.774487
957.200000 958.600000 48.614990
1058.222222 878.888889 126.500692
1321.818182 899.000000 426.512224
1132.459459 657.972973 266.329868
818.666667 224.387097 577.211770
623.021277 193.212766 416.430052
995.000000 765.444444 273.451480
1270.252174 936.034783 611.897618
1094.000000 760.000000 451.261688
760.289855 533.159420 169.180223
1203.000000 730.500000 315.368423
562.181818 973.818182 225.844011
1052.363636 909.000000 94.453491
1365.083333 956.083333 534.574473
758.787500 327.350000 156.726201
723.846154 384.576923 406.210305
839.293839 235.061611 556.753139
750.250000 166.642857 607.221913
707.521739 327.826087 392.341780
896.000000 332.666667 115.303345
945.690476 707.738095 263.109332
1105.000000 909.000000 79.499832
1338.444444 915.444444 424.367730
979.080000 36.860000 478.522689
622.468085 191.882979 413.825081
866.000000 266.500000 101.233582
645.458333 232.833333 434.217832
926.857143 960.285714 78.094500
795.916667 326.791667 167.035446
999.432432 941.972973 69.600598
878.250000 640.000000 234.781891
1311.800000 950.200000 152.010548
675.080000 545.680000 116.589081
1299.112500 971.975000 112.397894
1018.750000 859.000000 104.608063
1446.583333 884.166667 115.379608
675.000000 285.666667 469.258764
723.169643 381.875000 403.179801
817.623342 622.488064 169.874139
781.586207 347.068966 193.852592
1000.483333 972.833333 50.163048
1148.377953 923.118110 88.459037
843.000000 260.000000 585.324707
810.292683 644.365854 128.795598
810.645161 577.225806 196.249655
748.101010 522.272727 163.290963
567.565217 972.043478 190.665326
1305.000000 958.333333 73.475372
887.632653 645.163265 241.777087
1351.400000 912.600000 364.692636
695.216216 328.081081 474.000214
854.000000 614.000000 225.116089
768.692073 321.652439 148.660787
899.545455 341.787879 111.698390
1016.972973 52.297297 564.326751
554.000000 970.000000 234.724691
693.611650 293.650485 572.291129
1465.000000 951.000000 153.509033
1284.000000 610.000000 25.279785
621.803150 186.259843 347.143139
743.615385 431.384615 506.555209
1208.181818 936.363636 85.718387
1097.000000 949.000000 53.648079
683.800000 558.000000 102.926541
1006.277778 947.777778 52.758391
645.628099 216.223140 356.757125
1322.728972 900.962617 429.624127
1325.660000 903.280000 433.124279
1437.772727 891.090909 117.143967
726.253521 82.000000 92.287141
1203.000000 730.000000 314.682098
746.000000 443.000000 503.880287
1190.681818 923.318182 112.506042
1189.137931 932.068966 88.501002
1129.069231 917.284615 89.719095
947.000000 59.000000 547.347809
619.226054 183.432950 558.886573
987.848485 24.757576 548.859123
1090.800000 947.000000 116.282010
991.750000 763.722222 273.489610
959.000000 729.000000 275.332520
1308.636364 972.636364 107.592545
745.000000 372.000000 294.892944
1324.000000 617.800000 5.788031
866.166667 635.000000 222.248755
978.081633 746.183673 270.850381
785.500000 448.500000 245.134033
792.013245 651.350993 116.642685
997.130435 765.739130 279.649447
1098.755814 963.593023 640.991909
938.700000 968.700000 94.370300
1350.400000 962.325000 130.551310
1110.155172 911.663793 81.053927
1285.871795 608.435897 25.763733
780.984615 551.846154 180.034790
1231.844444 591.244444 43.320090
1499.636364 874.181818 82.016369
1059.631579 844.631579 115.074585
695.424242 328.212121 476.347371
696.894737 307.456140 399.463868
1481.371429 878.028571 97.190791
783.437500 435.500000 244.333315
986.400000 756.000000 272.556714
877.000000 69.000000 455.379654
1128.097222 941.194444 116.444061
740.000000 165.000000 603.352319
580.017115 216.743276 166.839600
1361.500000 921.500000 366.080556
703.000000 319.000000 375.651038
868.650190 672.760456 130.751423
590.310345 521.965517 107.592010
1323.047619 900.523810 401.655305
1309.500000 972.000000 104.531804
1012.384615 783.630769 286.389478
960.132275 155.386243 543.042834
840.156627 667.409639 106.562991
770.234694 542.183673 173.849136
982.023810 751.142857 271.258134
683.021739 271.456522 572.254625
1489.392857 851.660714 33.119471
1459.285714 951.642857 152.397832
1441.952381 891.571429 99.512326
673.747126 545.471264 116.257905
1448.615385 954.846154 185.335365
643.603774 231.735849 435.884015
608.857143 171.857143 539.798200
656.000000 435.000000 124.911987
1197.787234 725.106383 312.530621
941.772727 60.318182 540.609304
1372.814815 964.185185 579.325699
960.326633 643.663317 99.741950
572.281690 147.225352 538.075934
1198.703704 727.925926 328.103655
797.133333 336.800000 178.575315
1032.221239 516.692478 643.233027
691.544910 472.239521 138.701575
842.950820 260.393443 583.072595
1070.473684 602.894737 74.575117
1265.750000 914.750000 585.324707
700.500000 28.125000 67.975206
1061.000000 880.375000 127.657284
903.666667 43.333333 470.402657
877.916667 637.222222 236.046520
943.333333 158.888889 540.484517
576.148148 107.777778 334.119624
707.228758 25.947712 47.802314
1087.047619 755.714286 442.764269
957.739130 777.434783 111.463888
1068.112195 914.458537 111.415268
1175.000000 590.000000 65.201294
586.600000 194.800000 569.173096
1348.416667 651.458333 35.978273
818.333333 201.000000 94.370300
700.493939 315.209091 357.898676
796.958333 345.541667 187.672994
546.271186 936.830508 156.940680
1016.240000 787.780000 288.185195
746.116071 395.379464 291.383657
1036.212644 524.758621 646.141152
640.600000 224.478049 431.743138
784.000000 450.000000 244.676483
1285.901639 608.377049 24.029020
969.117647 970.205882 50.862393
1095.333333 759.000000 452.024272
873.400000 696.933333 126.627790
889.000000 962.307692 75.601825
733.692308 103.230769 115.356145
641.000000 219.000000 565.421158
990.495868 965.545455 49.706888
913.333333 660.200000 269.140312
692.089888 284.471910 573.068475
720.743590 503.307692 127.853802
579.800000 220.000000 164.673315
690.405063 281.354430 576.085333
1268.625000 928.250000 593.217524
705.000000 303.000000 434.332214
958.206897 441.206897 124.399191
603.644444 162.422222 336.108289
1444.000000 883.500000 114.845825
928.416667 968.666667 94.370300
1264.000000 914.000000 584.867188
727.625000 187.000000 576.631218
822.420168 622.193277 177.235464
815.294118 568.705882 211.524062
688.085308 275.066351 572.554987
1182.000000 930.000000 147.446472
677.827160 575.358025 112.446469
705.500000 60.000000 83.160263
1072.666667 916.925926 127.699651
1348.250000 964.500000 118.544362
988.909091 756.272727 277.745087
1129.285714 938.642857 116.888452
716.317757 365.682243 487.351714
1099.500000 944.850000 129.007066
1210.380952 932.380952 112.323815
761.884058 331.210145 159.225130
671.114286 573.257143 112.561305
538.261905 513.922969 101.573556
1131.588235 920.058824 91.678808
1343.125000 970.625000 620.327530
960.974790 114.000000 506.748641
1363.071429 953.714286 576.827308
1323.357143 650.000000 54.220023
846.252747 235.010989 91.921634
530.677419 920.451613 151.073673
1138.000000 942.000000 115.303345
783.105263 436.000000 245.519339
1343.173077 971.288462 596.222410
970.005348 152.859180 547.240364
808.682927 187.780488 86.882056
1037.598958 531.953125 643.426817
725.000000 385.375000 404.562672
1003.615385 947.769231 52.979344
939.108108 971.864865 94.370300
874.000000 635.000000 235.182251
1449.676471 951.852941 184.064160
1228.375000 917.375000 601.625065
1089.739130 950.000000 53.787339
965.555556 114.944444 505.252945
1178.335196 705.642458 302.074463
815.791667 196.541667 92.578215
1318.669065 965.179856 623.574023
893.000000 730.736842 112.287117
1150.809524 683.285714 274.199547
865.294118 257.647059 682.850816
919.449749 964.105528 52.758843
1000.000000 972.000000 69.204895
860.142857 115.047619 470.261031
981.925000 151.300000 501.089207
1309.823529 954.000000 89.121898
1283.500000 610.000000 23.525833
791.384615 545.723077 199.957701
945.000000 689.000000 273.959869
939.586207 144.258621 498.160869
1192.828947 721.486842 318.715788
576.901408 108.323944 336.436811
1283.407407 608.296296 23.873236
905.000000 342.000000 107.181793
946.564103 427.700855 116.501988
1324.000000 641.666667 2.249613
1058.506494 844.051948 113.398869
990.000000 99.000000 539.111877
983.615385 750.692308 276.485211
1343.400000 626.800000 0.297400
797.272727 341.818182 183.156394
1444.000000 970.222222 213.118028
1270.413580 602.851852 29.938642
1073.022222 923.822222 65.338562
1465.777778 961.259259 162.956661
550.208333 516.000000 102.472804
948.794872 761.435897 105.641946
1300.078481 616.964557 19.670711
781.654321 643.617284 113.264132
909.800000 121.600000 491.068802
885.000000 590.000000 444.855942
620.423913 524.750000 112.015933
689.096774 277.935484 576.247460
959.000000 731.200000 275.515552
1009.280000 961.160000 93.967655
707.500000 355.500000 495.186783
798.340426 317.744681 156.312760
569.142857 146.142857 559.026318
1454.000000 927.097561 170.310160
732.869565 101.750000 112.667448
643.756098 230.634146 433.576141
906.375000 118.125000 490.382469
960.900000 432.200000 110.582929
758.890819 321.900744 151.007253
1128.555556 898.444444 163.587904
926.500000 950.378788 58.376127
593.333333 145.666667 419.334649
1012.470588 938.823529 70.550630
834.000000 520.000000 300.497955
993.000000 760.625000 278.821369
610.432292 183.822917 560.135478
554.000000 968.555556 235.690647
553.000000 520.666667 101.843669
1315.250000 974.000000 105.408783
